# .PCD v.7 - Point Cloud Data file format
VERSION .7
FIELDS x y z intensity normals observationDirections
SIZE 4 4 4 4 4 4
TYPE F F F F F F
COUNT 1 1 1 1 3 3
WIDTH 550
HEIGHT 1
POINTS 550
DATA ascii
5.59486 1.31948 0.910449 19 -0.897799 -0.439465 -0.0287615 -5.59486 -1.31948 -0.910449
5.59457 1.31941 -0.502889 27 -0.0848117 -0.020639 -0.996183 -5.59457 -1.31941 0.502889
5.58751 1.31671 1.11585 22 -0.897799 -0.439465 -0.0287615 -5.58751 -1.31671 -1.11585
5.60822 1.3185 -0.100561 20 -0.700459 -0.712166 0.0466661 -5.60822 -1.3185 0.100561
5.5947 1.30605 0.100282 26 -0.909064 -0.416419 -0.0140663 -5.5947 -1.30605 -0.100282
3.25851 0.76008 -0.772482 6 0.214486 0.0527417 0.975302 -3.25851 -0.76008 0.772482
5.59365 1.30065 0.705136 22 -0.86308 -0.497219 -0.0886916 -5.59365 -1.30065 -0.705136
5.59967 1.30103 -0.705867 23 0.117732 0.0282248 0.992644 -5.59967 -1.30103 0.705867
5.60521 1.30128 0.911387 17 -0.897799 -0.439465 -0.0287615 -5.60521 -1.30128 -0.911387
5.61078 1.30257 -0.503935 28 -0.739047 -0.673101 0.0272924 -5.61078 -1.30257 0.503935
5.60355 1.29986 1.11814 27 0.18357 0.0407526 -0.982162 -5.60355 -1.29986 -1.11814
5.62837 1.30252 -0.10084 20 -0.700459 -0.712166 0.0466661 -5.62837 -1.30252 0.10084
2.86738 0.659351 -0.788363 10 -0.25276 -0.0610173 -0.965603 -2.86738 -0.659351 0.788363
3.87494 0.888904 -0.772776 4 -0.00450197 -0.00277513 0.999986 -3.87494 -0.888904 0.772776
4.70982 1.07869 -0.765278 5 -0.153596 -0.0368217 -0.987447 -4.70982 -1.07869 0.765278
5.60976 1.28378 0.706599 22 -0.86308 -0.497219 -0.0886916 -5.60976 -1.28378 -0.706599
5.60779 1.28127 0.911074 23 -0.897799 -0.439465 -0.0287615 -5.60779 -1.28127 -0.911074
5.62501 1.2852 -0.504806 27 -0.739047 -0.673101 0.0272924 -5.62501 -1.2852 0.504806
5.6157 1.28204 1.11967 27 0.18357 0.0407526 -0.982162 -5.6157 -1.28204 -1.11967
6.11613 1.39404 1.44823 8 -0.221831 -0.051189 0.973741 -6.11613 -1.39404 -1.44823
5.61729 1.27931 -0.100561 20 -0.0170506 -0.0037631 -0.999848 -5.61729 -1.27931 0.100561
2.8527 0.645502 -0.783704 8 -0.254345 -0.0543627 -0.965585 -2.8527 -0.645502 0.783704
5.61929 1.27049 0.100561 21 -0.0172248 -0.00387771 0.999844 -5.61929 -1.27049 -0.100561
3.27895 0.740748 -0.776081 6 0.21948 0.0480168 0.974435 -3.27895 -0.740748 0.776081
5.61288 1.26698 0.30156 25 -0.919562 -0.391399 0.0348199 -5.61288 -1.26698 -0.30156
5.62002 1.26549 0.70733 22 -0.86308 -0.497219 -0.0886916 -5.62002 -1.26549 -0.70733
5.61223 1.26168 0.911074 23 -0.897799 -0.439465 -0.0287615 -5.61223 -1.26168 -0.911074
5.61196 1.26163 -0.503237 28 -0.846573 -0.528655 0.0619487 -5.61196 -1.26163 0.503237
2.83619 0.630847 -0.778528 8 -0.254345 -0.0543627 -0.965585 -2.83619 -0.630847 0.778528
5.62391 1.24988 0.100561 21 -0.0172248 -0.00387771 0.999844 -5.62391 -1.24988 -0.100561
5.62724 1.24856 0.302083 25 -0.919562 -0.391399 0.0348199 -5.62724 -1.24856 -0.302083
3.88312 0.861578 -0.773158 4 -0.00450197 -0.00277513 0.999986 -3.88312 -0.861578 0.773158
5.62735 1.24755 0.504283 19 -0.919562 -0.391399 0.0348199 -5.62735 -1.24755 -0.504283
4.70971 1.04326 -0.764026 4 0.151418 0.0308295 0.987989 -4.70971 -1.04326 0.764026
5.63819 1.24789 0.709036 24 -0.950534 -0.270535 -0.152628 -5.63819 -1.24789 -0.709036
5.6361 1.24537 0.914203 22 -0.897799 -0.439465 -0.0287615 -5.6361 -1.24537 -0.914203
5.63017 1.24406 -0.504457 26 -0.879902 -0.474552 -0.0239382 -5.63017 -1.24406 0.504457
5.62857 1.24267 1.12043 28 0.18357 0.0407526 -0.982162 -5.62857 -1.24267 -1.12043
6.1526 1.35611 1.45453 8 -0.221831 -0.051189 0.973741 -6.1526 -1.35611 -1.45453
2.8497 0.623419 -0.781634 7 -0.254345 -0.0543627 -0.965585 -2.8497 -0.623419 0.781634
5.63214 1.2311 0.100631 19 -0.0172248 -0.00387771 0.999844 -5.63214 -1.2311 -0.100631
5.64522 1.23189 0.302816 25 -0.945169 -0.322666 0.0504147 -5.64522 -1.23189 -0.302816
3.90528 0.852203 -0.776974 4 -0.187965 -0.0392374 -0.981392 -3.90528 -0.852203 0.776974
5.63475 1.22651 0.708061 21 -0.950534 -0.270535 -0.152628 -5.63475 -1.22651 -0.708061
5.66018 1.23102 -0.71123 21 -0.858026 -0.513489 0.0109633 -5.66018 -1.23102 0.71123
5.64814 1.22736 0.915455 22 -0.154163 -0.0326734 0.987505 -5.64814 -1.22736 -0.915455
5.65005 1.22778 -0.505852 27 -0.879902 -0.474552 -0.0239382 -5.65005 -1.22778 0.505852
6.16682 1.33669 1.45678 6 -0.221831 -0.051189 0.973741 -6.16682 -1.33669 -1.45678
5.64147 1.21149 0.302397 25 -0.945169 -0.322666 0.0504147 -5.64147 -1.21149 -0.302397
3.91015 0.83898 -0.777356 4 -0.187965 -0.0392374 -0.981392 -3.91015 -0.83898 0.777356
5.64094 1.20726 0.708305 21 -0.950534 -0.270535 -0.152628 -5.64094 -1.20726 -0.708305
5.64511 1.20402 -0.302502 26 -0.879902 -0.474552 -0.0239382 -5.64511 -1.20402 0.302502
5.67763 1.20992 -0.101329 20 -0.0170506 -0.0037631 -0.999848 -5.67763 -1.20992 0.101329
5.64936 1.19359 0.302607 25 -0.945169 -0.322666 0.0504147 -5.64936 -1.19359 -0.302607
3.90139 0.823575 -0.775066 4 0.184309 0.0429569 0.981929 -3.90139 -0.823575 0.775066
5.66388 1.1915 0.916706 23 -0.154163 -0.0326734 0.987505 -5.66388 -1.1915 -0.916706
5.66604 1.18989 1.12539 28 0.183859 0.0370267 -0.982255 -5.66604 -1.18989 -1.12539
5.67057 1.18981 -0.303653 28 -0.0514487 -0.0103696 -0.998622 -5.67057 -1.18981 0.303653
2.85965 0.595329 -0.782669 8 -0.254345 -0.0543627 -0.965585 -2.85965 -0.595329 0.782669
5.67368 1.18013 0.101154 21 -0.0173255 -0.00357574 0.999844 -5.67368 -1.18013 -0.101154
3.29126 0.683984 -0.776081 6 0.21948 0.0480168 0.974435 -3.29126 -0.683984 0.776081
5.66718 1.17671 0.303339 25 -0.879438 -0.473614 0.047733 -5.66718 -1.17671 -0.303339
3.90424 0.80995 -0.775066 4 -0.187965 -0.0392374 -0.981392 -3.90424 -0.80995 0.775066
5.68283 1.17893 0.507769 28 -0.879438 -0.473614 0.047733 -5.68283 -1.17893 -0.507769
5.6879 1.17687 -0.713179 23 -0.858026 -0.513489 0.0109633 -5.6879 -1.17687 0.713179
5.6741 1.17195 -0.506898 26 -0.795576 -0.603062 -0.0580946 -5.6741 -1.17195 0.506898
5.67664 1.17041 -0.303758 26 -0.0514487 -0.0103696 -0.998622 -5.67664 -1.17041 0.303758
6.18194 1.27459 1.45723 4 0.220284 0.0453368 -0.974382 -6.18194 -1.27459 -1.45723
5.6779 1.16964 -0.101189 20 0.0170046 0.00336527 0.99985 -5.6779 -1.16964 0.101189
2.85424 0.583298 -0.780598 8 -0.254345 -0.0543627 -0.965585 -2.85424 -0.583298 0.780598
5.67209 1.15813 0.101049 26 -0.0173255 -0.00357574 0.999844 -5.67209 -1.15813 -0.101049
3.29374 0.671916 -0.776081 6 -0.227347 -0.0406997 -0.972963 -3.29374 -0.671916 0.776081
5.68124 1.15793 0.303863 25 -0.879438 -0.473614 0.047733 -5.68124 -1.15793 -0.303863
5.68907 1.15849 0.507944 22 -0.879438 -0.473614 0.047733 -5.68907 -1.15849 -0.507944
4.72703 0.961726 -0.764026 5 0.151418 0.0308295 0.987989 -4.72703 -0.961726 0.764026
5.6842 1.15543 0.712205 21 0.118115 0.0236622 -0.992718 -5.6842 -1.15543 -0.712205
5.67445 1.15036 -0.506549 25 -0.795576 -0.603062 -0.0580946 -5.67445 -1.15036 0.506549
6.21713 1.25811 1.46443 3 0.220284 0.0453368 -0.974382 -6.21713 -1.25811 -1.46443
5.69391 1.15119 -0.101398 20 0.0170046 0.00336527 0.99985 -5.69391 -1.15119 0.101398
2.86772 0.57511 -0.783704 8 -0.254345 -0.0543627 -0.965585 -2.86772 -0.57511 0.783704
5.6861 1.13929 0.101224 22 -0.0173255 -0.00357574 0.999844 -5.6861 -1.13929 -0.101224
5.705 1.13997 0.50899 21 -0.805265 -0.579585 0.12502 -5.705 -1.13997 -0.50899
4.7344 0.945168 -0.764652 5 0.147679 0.0266555 0.988676 -4.7344 -0.945168 0.764652
5.68645 1.1342 0.711961 21 0.118115 0.0236622 -0.992718 -5.68645 -1.1342 -0.711961
5.70786 1.13847 -0.714642 23 -0.795576 -0.603062 -0.0580946 -5.70786 -1.13847 0.714642
5.68802 1.13142 1.1273 25 0.183859 0.0370267 -0.982255 -5.68802 -1.13142 -1.1273
5.69467 1.13171 -0.304281 28 -0.0514487 -0.0103696 -0.998622 -5.69467 -1.13171 0.304281
6.21193 1.2345 1.46218 4 0.220284 0.0453368 -0.974382 -6.21193 -1.2345 -1.46218
5.69377 1.1212 0.101294 22 -0.0173255 -0.00357574 0.999844 -5.69377 -1.1212 -0.101294
3.92407 0.771294 -0.777356 4 0.184917 0.0345183 0.982148 -3.92407 -0.771294 0.777356
4.73363 0.928701 -0.764026 5 0.151418 0.0308295 0.987989 -4.73363 -0.928701 0.764026
5.71874 1.1199 0.922963 23 -0.154724 -0.0299151 0.987505 -5.71874 -1.1199 -0.922963
6.21981 1.21464 1.46308 3 0.219664 0.0380092 -0.974835 -6.21981 -1.21464 -1.46308
2.87147 0.556079 -0.783704 7 -0.254772 -0.0465651 -0.965879 -2.87147 -0.556079 0.783704
5.71317 1.10536 0.101573 22 -0.0173255 -0.00357574 0.999844 -5.71317 -1.10536 -0.101573
4.74638 0.914869 -0.76559 6 0.147679 0.0266555 0.988676 -4.74638 -0.914869 0.76559
5.71334 1.10021 0.714398 22 -0.903222 -0.426917 -0.0439581 -5.71334 -1.10021 -0.714398
5.72327 1.10109 -0.715617 23 0.119441 0.0222126 0.992593 -5.72327 -1.10109 0.715617
5.71485 1.09844 0.921712 23 -0.154724 -0.0299151 0.987505 -5.71485 -1.09844 -0.921712
6.22593 1.19329 1.46353 3 0.219664 0.0380092 -0.974835 -6.22593 -1.19329 -1.46353
5.71921 1.09513 -0.101643 20 0.0170046 0.00336527 0.99985 -5.71921 -1.09513 0.101643
2.8696 0.54533 -0.782669 7 -0.298442 -0.0499998 -0.953117 -2.8696 -0.54533 0.782669
5.73974 1.08661 0.511081 25 -0.903222 -0.426917 -0.0439581 -5.73974 -1.08661 -0.511081
5.7397 1.08141 1.13531 28 0.18509 0.0339384 -0.982135 -5.7397 -1.08141 -1.13531
5.73135 1.07881 -0.305642 28 -0.924483 -0.380592 0.0219535 -5.73135 -1.07881 0.305642
5.72889 1.07627 -0.101748 17 -0.953519 -0.300721 -0.0192027 -5.72889 -1.07627 0.101748
3.9125 0.727259 -0.77354 4 -0.00450197 -0.00277513 0.999986 -3.9125 -0.727259 0.77354
5.73958 1.06584 0.510733 22 -0.903222 -0.426917 -0.0439581 -5.73958 -1.06584 -0.510733
4.74488 0.88027 -0.764339 6 0.151418 0.0308295 0.987989 -4.74488 -0.88027 0.764339
5.74644 1.064 -0.717567 21 0.119441 0.0222126 0.992593 -5.74644 -1.064 0.717567
5.73986 1.06175 0.924528 19 -0.154724 -0.0299151 0.987505 -5.73986 -1.06175 -0.924528
5.73659 1.06011 -0.510384 25 -0.0861976 -0.0161386 -0.996147 -5.73659 -1.06011 0.510384
6.27627 1.15757 1.47343 3 -0.223611 -0.040742 0.973827 -6.27627 -1.15757 -1.47343
2.87723 0.525476 -0.783704 8 -0.254772 -0.0465651 -0.965879 -2.87723 -0.525476 0.783704
5.72443 1.04547 0.101573 38 -0.953519 -0.300721 -0.0192027 -5.72443 -1.04547 -0.101573
5.73747 1.04578 0.305642 46 -0.805265 -0.579585 0.12502 -5.73747 -1.04578 -0.305642
5.75579 1.04601 0.718298 43 -0.912615 -0.407558 -0.0320909 -5.75579 -1.04601 -0.718298
5.76492 1.04558 0.927969 41 -0.154724 -0.0299151 0.987505 -5.76492 -1.04558 -0.927969
5.74089 1.03812 -0.305747 40 -0.924483 -0.380592 0.0219535 -5.74089 -1.03812 0.305747
6.27663 1.13387 1.47253 3 -0.223611 -0.040742 0.973827 -6.27663 -1.13387 -1.47253
5.75988 1.04052 -0.102166 37 -0.924483 -0.380592 0.0219535 -5.75988 -1.04052 0.102166
2.87144 0.514068 -0.781634 7 -0.298442 -0.0499998 -0.953117 -2.87144 -0.514068 0.781634
3.935 0.702348 -0.776974 4 0.184917 0.0345183 0.982148 -3.935 -0.702348 0.776974
5.77452 1.02964 0.513173 34 -0.93768 -0.329367 0.110785 -5.77452 -1.02964 -0.513173
4.75495 0.846986 -0.764965 6 0.147679 0.0266555 0.988676 -4.75495 -0.846986 0.764965
5.76368 1.02459 -0.718785 29 0.119441 0.0222126 0.992593 -5.76368 -1.02459 0.718785
5.76853 1.02546 0.927969 30 -0.156142 -0.027088 0.987363 -5.76853 -1.02546 -0.927969
5.77131 1.02491 -0.512824 28 -0.0861976 -0.0161386 -0.996147 -5.77131 -1.02491 0.512824
5.74895 1.0199 1.13493 34 0.18509 0.0339384 -0.982135 -5.74895 -1.0199 -1.13493
2.89225 0.50738 -0.78681 7 -0.254772 -0.0465651 -0.965879 -2.89225 -0.50738 0.78681
5.75916 1.01032 0.102062 22 -0.0178844 -0.0031976 0.999835 -5.75916 -1.01032 -0.102062
3.29576 0.577573 -0.772482 6 -0.227347 -0.0406997 -0.972963 -3.29576 -0.577573 0.772482
5.77808 1.00947 0.513173 24 -0.93768 -0.329367 0.110785 -5.77808 -1.00947 -0.513173
5.77095 1.00616 -0.719273 27 -0.87516 -0.483079 -0.02701 -5.77095 -1.00616 0.719273
5.77682 1.0051 -0.512999 28 -0.968649 -0.235914 0.0778691 -5.77682 -1.0051 0.512999
5.76553 1.0021 -0.306689 26 -0.918438 -0.395436 0.0101258 -5.76553 -1.0021 0.306689
5.77094 1.00096 -0.102236 20 -0.918438 -0.395436 0.0101258 -5.77094 -1.00096 0.102236
5.7666 0.990883 0.102131 22 -0.0178844 -0.0031976 0.999835 -5.7666 -0.990883 -0.102131
5.76368 0.989349 0.306479 25 -0.93768 -0.329367 0.110785 -5.76368 -0.989349 -0.306479
5.78673 0.986026 1.14104 21 -0.18831 -0.0313725 0.981609 -5.78673 -0.986026 -1.14104
5.7762 0.982155 -0.102271 20 -0.918438 -0.395436 0.0101258 -5.7762 -0.982155 0.102271
5.78482 0.972201 0.307421 23 -0.951367 -0.308051 0.00234946 -5.78482 -0.972201 -0.307421
3.93234 0.660164 -0.775066 4 -0.00254051 0.00109541 0.999996 -3.93234 -0.660164 0.775066
5.78481 0.970123 0.513173 22 -0.951367 -0.308051 0.00234946 -5.78481 -0.970123 -0.513173
4.76718 0.799464 -0.76559 6 0.147679 0.0266555 0.988676 -4.76718 -0.799464 0.76559
5.78925 0.969828 0.720735 21 -0.955988 -0.287539 -0.0583876 -5.78925 -0.969828 -0.720735
5.78658 0.967305 0.929221 22 -0.156142 -0.027088 0.987363 -5.78658 -0.967305 -0.929221
5.79586 0.966774 -0.307945 23 -0.98754 -0.156972 0.0111916 -5.79586 -0.966774 0.307945
5.79735 0.964945 -0.102585 17 -0.98754 -0.156972 0.0111916 -5.79735 -0.964945 0.102585
2.8858 0.476189 -0.783704 7 0.25492 0.0384197 0.966199 -2.8858 -0.476189 0.783704
5.80373 0.95352 0.514567 21 -0.955988 -0.287539 -0.0583876 -5.80373 -0.95352 -0.514567
4.76994 0.782817 -0.76559 6 0.147679 0.0266555 0.988676 -4.76994 -0.782817 0.76559
5.78868 0.94897 0.720248 21 -0.955988 -0.287539 -0.0583876 -5.78868 -0.94897 -0.720248
5.81235 0.951812 -0.723173 25 -0.87516 -0.483079 -0.02701 -5.81235 -0.951812 0.723173
5.79276 0.946525 -0.513522 25 -0.968649 -0.235914 0.0778691 -5.79276 -0.946525 0.513522
6.32973 1.032 1.48063 7 0.221246 0.0361309 -0.974549 -6.32973 -1.032 -1.48063
5.80858 0.945987 -0.102725 17 -0.962199 -0.270009 -0.0356055 -5.80858 -0.945987 0.102725
5.79442 0.933302 0.102446 19 -0.0178844 -0.0031976 0.999835 -5.79442 -0.933302 -0.102446
3.94859 0.633875 -0.777356 5 -0.195323 -0.0326927 -0.980194 -3.94859 -0.633875 0.777356
5.81899 0.934133 0.515613 18 -0.959489 -0.280296 -0.0285476 -5.81899 -0.934133 -0.515613
5.81676 0.929613 0.932975 22 -0.15592 -0.0240674 0.987476 -5.81676 -0.929613 -0.932975
6.32192 1.00695 1.47793 12 0.221246 0.0361309 -0.974549 -6.32192 -1.00695 -1.47793
5.81595 0.925321 -0.102795 17 -0.962199 -0.270009 -0.0356055 -5.81595 -0.925321 0.102795
5.80768 0.913613 0.10262 19 -0.98754 -0.156972 0.0111916 -5.80768 -0.913613 -0.10262
3.30543 0.51939 -0.772482 6 -0.227347 -0.0406997 -0.972963 -3.30543 -0.51939 0.772482
5.80077 0.911488 0.307735 25 -0.951367 -0.308051 0.00234946 -5.80077 -0.911488 -0.307735
5.83024 0.914034 0.516311 18 -0.959489 -0.280296 -0.0285476 -5.83024 -0.914034 -0.516311
4.78726 0.749664 -0.767468 6 0.0375249 0.00905927 0.999255 -4.78726 -0.749664 0.767468
5.81907 0.908121 -0.515265 26 -0.922533 -0.385893 -0.00444863 -5.81907 -0.908121 0.515265
5.81322 0.904091 -0.10269 20 -0.962199 -0.270009 -0.0356055 -5.81322 -0.904091 0.10269
3.30713 0.508426 -0.772482 6 -0.223216 -0.0321029 -0.97424 -3.30713 -0.508426 0.772482
5.81165 0.893462 0.308154 25 -0.951367 -0.308051 0.00234946 -5.81165 -0.893462 -0.308154
5.82537 0.893488 0.515613 18 -0.959489 -0.280296 -0.0285476 -5.82537 -0.893488 -0.515613
5.82789 0.891793 -0.723904 23 -0.922533 -0.385893 -0.00444863 -5.82789 -0.891793 0.723904
5.81709 0.889103 0.932037 19 -0.15592 -0.0240674 0.987476 -5.81709 -0.889103 -0.932037
5.83022 0.889027 1.14638 20 -0.18899 -0.0282141 0.981574 -5.83022 -0.889027 -1.14638
5.82672 0.887452 -0.308887 28 -0.922533 -0.385893 -0.00444863 -5.82672 -0.887452 0.308887
5.82805 0.886611 -0.102899 20 -0.962199 -0.270009 -0.0356055 -5.82805 -0.886611 0.102899
2.88453 0.4347 -0.781634 7 0.25492 0.0384197 0.966199 -2.88453 -0.4347 0.781634
5.82153 0.876265 0.10276 17 -0.827548 -0.559508 -0.0459851 -5.82153 -0.876265 -0.10276
5.82856 0.875247 0.308887 23 -0.973126 -0.22949 0.0189577 -5.82856 -0.875247 -0.308887
5.83224 0.874755 0.515962 18 -0.973126 -0.22949 0.0189577 -5.83224 -0.874755 -0.515962
4.78822 0.717315 -0.766842 9 0.0946565 0.0112427 0.995447 -4.78822 -0.717315 0.766842
5.8506 0.874377 -0.726341 23 -0.984041 -0.175716 -0.0280576 -5.8506 -0.874377 0.726341
5.83579 0.871126 0.93454 20 -0.15592 -0.0240674 0.987476 -5.83579 -0.871126 -0.93454
5.83314 0.869687 1.14638 20 -0.18899 -0.0282141 0.981574 -5.83314 -0.869687 -1.14638
5.83309 0.866557 -0.102934 20 -0.827548 -0.559508 -0.0459851 -5.83309 -0.866557 0.102934
5.83048 0.856813 0.102864 19 -0.827548 -0.559508 -0.0459851 -5.83048 -0.856813 -0.102864
3.30666 0.485337 -0.771582 6 -0.223216 -0.0321029 -0.97424 -3.30666 -0.485337 0.771582
5.85103 0.856702 0.517356 18 -0.968413 -0.248965 0.0139209 -5.85103 -0.856702 -0.517356
4.78874 0.700309 -0.766529 7 0.0946565 0.0112427 0.995447 -4.78874 -0.700309 0.766529
5.84168 0.853251 0.724879 21 -0.973126 -0.22949 0.0189577 -5.84168 -0.853251 -0.724879
5.85361 0.853951 -0.726341 21 -0.984041 -0.175716 -0.0280576 -5.85361 -0.853951 0.726341
5.85639 0.853312 0.937355 17 -0.15592 -0.0240674 0.987476 -5.85639 -0.853312 -0.937355
5.84646 0.849781 -0.30962 26 -0.938357 -0.345046 -0.020737 -5.84646 -0.849781 0.30962
5.85191 0.848487 -0.103214 17 -0.827548 -0.559508 -0.0459851 -5.85191 -0.848487 0.103214
5.84136 0.837592 0.103004 17 -0.827548 -0.559508 -0.0459851 -5.84136 -0.837592 -0.103004
3.2929 0.471581 -0.767983 6 0 0 1 -3.2929 -0.471581 0.767983
5.83848 0.8351 0.309096 23 -0.973126 -0.22949 0.0189577 -5.83848 -0.8351 -0.309096
4.79702 0.684425 -0.767468 6 0.15341 0.0215254 0.987928 -4.79702 -0.684425 0.767468
5.84266 0.832576 0.724635 19 -0.968413 -0.248965 0.0139209 -5.84266 -0.832576 -0.724635
5.86324 0.833418 0.937981 19 -0.15592 -0.0240674 0.987476 -5.86324 -0.833418 -0.937981
5.85073 0.830601 1.14867 17 -0.18899 -0.0282141 0.981574 -5.85073 -0.830601 -1.14867
5.84543 0.828805 -0.30941 23 -0.938357 -0.345046 -0.020737 -5.84543 -0.828805 0.30941
5.86671 0.829737 -0.103423 17 -0.98402 -0.175553 -0.0297609 -5.86671 -0.829737 0.103423
3.30225 0.461163 -0.769782 6 -0.0457198 -0.00999761 0.998904 -3.30225 -0.461163 0.769782
5.87123 0.814701 -0.727804 23 -0.91546 -0.401384 -0.0286964 -5.87123 -0.814701 0.727804
5.86915 0.812325 1.15172 19 -0.556133 0.79546 0.240748 -5.86915 -0.812325 -1.15172
5.86412 0.810585 -0.310248 23 -0.938357 -0.345046 -0.020737 -5.86412 -0.810585 0.310248
2.89804 0.394922 -0.783704 7 0.245818 0.038147 0.968565 -2.89804 -0.394922 0.783704
5.86503 0.798195 0.103318 19 -0.98402 -0.175553 -0.0297609 -5.86503 -0.798195 -0.103318
3.32323 0.451681 -0.774282 6 0.168977 0.0256027 0.985287 -3.32323 -0.451681 0.774282
5.86014 0.795449 0.309934 23 -0.968413 -0.248965 0.0139209 -5.86014 -0.795449 -0.309934
3.96281 0.537907 -0.777356 4 -0.191672 -0.0256852 -0.981123 -3.96281 -0.537907 0.777356
5.88153 0.797304 0.519274 16 -0.960977 -0.275827 0.0210461 -5.88153 -0.797304 -0.519274
5.88598 0.794769 -0.729266 23 -0.91546 -0.401384 -0.0286964 -5.88598 -0.794769 0.729266
5.88182 0.792119 1.15363 19 -0.556133 0.79546 0.240748 -5.88182 -0.792119 -1.15363
5.87448 0.788 -0.103458 20 -0.98402 -0.175553 -0.0297609 -5.87448 -0.788 0.103458
3.32092 0.439566 -0.773382 6 0.168977 0.0256027 0.985287 -3.32092 -0.439566 0.773382
5.87873 0.777081 0.310771 25 -0.960977 -0.275827 0.0210461 -5.87873 -0.777081 -0.310771
3.97829 0.525871 -0.780027 4 -0.191696 -0.0217452 -0.981213 -3.97829 -0.525871 0.780027
5.88033 0.776251 0.518925 16 -0.960977 -0.275827 0.0210461 -5.88033 -0.776251 -0.518925
5.89449 0.776024 0.729997 19 -0.840054 -0.541604 -0.0312111 -5.89449 -0.776024 -0.729997
5.88941 0.773265 0.940797 16 -0.840054 -0.541604 -0.0312111 -5.88941 -0.773265 -0.940797
5.93406 0.775967 1.38165 9 -0.556133 0.79546 0.240748 -5.93406 -0.775967 -1.38165
5.88711 0.768783 -0.103632 17 -0.983225 -0.181816 0.0145443 -5.88711 -0.768783 0.103632
3.30697 0.425979 -0.769782 6 -0.0457198 -0.00999761 0.998904 -3.30697 -0.425979 0.769782
5.89316 0.759111 0.311399 23 -0.983225 -0.181816 0.0145443 -5.89316 -0.759111 -0.311399
3.97231 0.51098 -0.778501 4 -0.202802 -0.0210341 -0.978994 -3.97231 -0.51098 0.778501
4.80426 0.616291 -0.767155 5 0.15341 0.0215254 0.987928 -4.80426 -0.616291 0.767155
5.91108 0.756179 -0.731704 23 -0.980304 -0.195639 -0.0269975 -5.91108 -0.756179 0.731704
5.89978 0.754734 0.942048 16 -0.745649 -0.666288 -0.00823506 -5.89978 -0.754734 -0.942048
5.88915 0.751286 1.15401 17 -0.8462 -0.53282 0.00696299 -5.88915 -0.751286 -1.15401
5.8843 0.749623 -0.310876 23 -0.889347 -0.457073 -0.0120755 -5.8843 -0.749623 0.310876
5.88683 0.739504 0.103563 19 -0.983225 -0.181816 0.0145443 -5.88683 -0.739504 -0.103563
3.3045 0.414526 -0.768883 6 -0.000657346 -0.000192675 1 -3.3045 -0.414526 0.768883
4.81019 0.600846 -0.76778 6 -0.166373 -0.0196449 -0.985867 -4.81019 -0.600846 0.76778
5.9016 0.736132 0.730241 21 -0.745649 -0.666288 -0.00823506 -5.9016 -0.736132 -0.730241
5.90961 0.736081 -0.731216 24 -0.980304 -0.195639 -0.0269975 -5.90961 -0.736081 0.731216
5.9063 0.734622 0.942674 16 -0.953874 -0.299677 -0.0178154 -5.9063 -0.734622 -0.942674
5.90589 0.733527 -0.520668 28 -0.980304 -0.195639 -0.0269975 -5.90589 -0.733527 0.520668
5.89072 0.730596 -0.311085 21 -0.889347 -0.457073 -0.0120755 -5.89072 -0.730596 0.311085
5.91406 0.732443 1.3758 37 -0.8462 -0.53282 0.00696299 -5.91406 -0.732443 -1.3758
5.91602 0.73164 -0.104051 17 -0.937273 -0.345619 -0.0454593 -5.91602 -0.73164 0.104051
2.91088 0.355864 -0.785775 7 0.255612 0.0295008 0.966329 -2.91088 -0.355864 0.785775
3.31753 0.404404 -0.771582 7 -0.223216 -0.0321029 -0.97424 -3.31753 -0.404404 0.771582
3.964 0.482506 -0.776211 4 -0.191672 -0.0256852 -0.981123 -3.964 -0.482506 0.776211
5.92163 0.719741 0.521889 15 -0.953874 -0.299677 -0.0178154 -5.92163 -0.719741 -0.521889
5.91399 0.71672 0.73146 19 -0.953874 -0.299677 -0.0178154 -5.91399 -0.71672 -0.73146
5.91609 0.715923 -0.731704 21 -0.980304 -0.195639 -0.0269975 -5.91609 -0.715923 0.731704
5.91656 0.710745 -0.104016 17 -0.725048 -0.688133 -0.0279008 -5.91656 -0.710745 0.104016
2.91216 0.345194 -0.785775 7 -0.265569 -0.0283481 -0.963675 -2.91216 -0.345194 0.785775
5.9168 0.692971 -0.521191 25 -0.980304 -0.195639 -0.0269975 -5.9168 -0.692971 0.521191
5.9396 0.694592 1.16241 20 -0.998742 -0.0240094 -0.0440126 -5.9396 -0.694592 -1.16241
5.93077 0.691459 1.3785 24 -0.998742 -0.0240094 -0.0440126 -5.93077 -0.691459 -1.3785
5.92893 0.691244 -0.104191 17 -0.725048 -0.688133 -0.0279008 -5.92893 -0.691244 0.104191
3.32809 0.381542 -0.773382 6 0.168977 0.0256027 0.985287 -3.32809 -0.381542 0.773382
5.93096 0.679943 0.312864 23 -0.725048 -0.688133 -0.0279008 -5.93096 -0.679943 -0.312864
3.9693 0.454351 -0.776593 4 -0.202802 -0.0210341 -0.978994 -3.9693 -0.454351 0.776593
5.93257 0.67803 0.522412 16 -0.854397 -0.519619 0.00131553 -5.93257 -0.67803 -0.522412
4.81632 0.549602 -0.76778 6 -0.166373 -0.0196449 -0.985867 -4.81632 -0.549602 0.76778
5.93869 0.676629 0.733897 19 -0.854397 -0.519619 0.00131553 -5.93869 -0.676629 -0.733897
5.9467 0.67649 -0.734872 19 -0.834521 -0.54298 -0.0935316 -5.9467 -0.67649 0.734872
5.93722 0.675412 0.946429 16 -0.854397 -0.519619 0.00131553 -5.93722 -0.675412 -0.946429
5.94199 0.673853 1.16241 20 -0.998742 -0.0240094 -0.0440126 -5.94199 -0.673853 -1.16241
5.94864 0.672505 1.3821 23 -0.905962 -0.423007 0.0172638 -5.94864 -0.672505 -1.3821
5.95118 0.672792 -0.10454 17 -0.725048 -0.688133 -0.0279008 -5.95118 -0.672792 0.10454
2.91066 0.324427 -0.784739 7 0.255612 0.0295008 0.966329 -2.91066 -0.324427 0.784739
5.92639 0.660564 0.104086 19 -0.924782 -0.380026 0.0189272 -5.92639 -0.660564 -0.104086
5.94521 0.660557 0.313492 23 -0.924782 -0.380026 0.0189272 -5.94521 -0.660557 -0.313492
3.96501 0.439844 -0.775448 4 -0.202802 -0.0210341 -0.978994 -3.96501 -0.439844 0.775448
4.81419 0.533194 -0.767155 3 0.0946565 0.0112427 0.995447 -4.81419 -0.533194 0.767155
5.96272 0.658293 -0.736578 23 -0.122289 -0.0132703 -0.992406 -5.96272 -0.658293 0.736578
5.95525 0.656416 0.948932 16 -0.883149 -0.469093 -0.000303968 -5.95525 -0.656416 -0.948932
5.9413 0.653826 -0.522934 26 -0.834521 -0.54298 -0.0935316 -5.9413 -0.653826 0.522934
5.94028 0.653714 1.16165 17 -0.998742 -0.0240094 -0.0440126 -5.94028 -0.653714 -1.16165
5.96439 0.654263 1.38525 24 -0.905962 -0.423007 0.0172638 -5.96439 -0.654263 -1.38525
5.96741 0.653537 -0.104784 15 -0.0174153 -0.00179766 -0.999847 -5.96741 -0.653537 0.104784
2.91172 0.314772 -0.784739 8 -0.265569 -0.0283481 -0.963675 -2.91172 -0.314772 0.784739
3.31123 0.356791 -0.768883 6 -0.000657346 -0.000192675 1 -3.31123 -0.356791 0.768883
5.94748 0.639802 0.313492 23 -0.924782 -0.380026 0.0189272 -5.94748 -0.639802 -0.313492
5.96478 0.640611 0.524852 16 -0.883149 -0.469093 -0.000303968 -5.96478 -0.640611 -0.524852
5.95815 0.634639 1.1647 17 -0.905962 -0.423007 0.0172638 -5.95815 -0.634639 -1.1647
5.9423 0.631902 -0.313178 23 -0.0520348 -0.00572119 -0.998629 -5.9423 -0.631902 0.313178
5.96083 0.632821 1.3839 24 -0.905962 -0.423007 0.0172638 -5.96083 -0.632821 -1.3839
5.97959 0.633758 -0.104959 17 -0.0174153 -0.00179766 -0.999847 -5.97959 -0.633758 0.104959
2.91665 0.305009 -0.785775 8 -0.265569 -0.0283481 -0.963675 -2.91665 -0.305009 0.785775
5.95274 0.621458 0.10447 21 -0.924782 -0.380026 0.0189272 -5.95274 -0.621458 -0.10447
3.32408 0.346444 -0.771582 6 0.218084 0.0230935 0.975657 -3.32408 -0.346444 0.771582
3.98549 0.414673 -0.778882 4 -0.191696 -0.0217452 -0.981213 -3.98549 -0.414673 0.778882
5.98085 0.621225 0.526072 16 -0.957175 -0.287944 -0.0300847 -5.98085 -0.621225 -0.526072
4.82762 0.50059 -0.768719 3 -0.166373 -0.0196449 -0.985867 -4.82762 -0.50059 0.768719
5.96114 0.617077 0.735847 19 -0.883149 -0.469093 -0.000303968 -5.96114 -0.617077 -0.735847
5.96543 0.615417 -0.524678 25 -0.946323 -0.320784 0.0396299 -5.96543 -0.615417 0.524678
5.97595 0.615448 1.16775 22 -0.905962 -0.423007 0.0172638 -5.97595 -0.615448 -1.16775
5.95766 0.599904 0.313806 21 -0.937428 -0.34761 -0.0199178 -5.95766 -0.599904 -0.313806
5.98497 0.600544 0.526246 16 -0.957175 -0.287944 -0.0300847 -5.98497 -0.600544 -0.526246
4.83327 0.484128 -0.769345 3 -0.166373 -0.0196449 -0.985867 -4.83327 -0.484128 0.769345
5.97906 0.597846 0.737797 19 -0.957175 -0.287944 -0.0300847 -5.97906 -0.597846 -0.737797
5.97742 0.596626 0.951435 18 -0.96089 -0.276924 -0.00178369 -5.97742 -0.596626 -0.951435
5.98978 0.595749 1.17004 23 -0.870334 -0.492381 0.00893944 -5.98978 -0.595749 -1.17004
5.98837 0.593497 1.3893 24 -0.870334 -0.492381 0.00893944 -5.98837 -0.593497 -1.3893
5.98576 0.593238 -0.104994 15 -0.0174153 -0.00179766 -0.999847 -5.98576 -0.593238 0.104994
5.97474 0.582671 0.104784 17 -0.937428 -0.34761 -0.0199178 -5.97474 -0.582671 -0.104784
3.33412 0.324564 -0.773382 6 -0.2262 -0.0182097 -0.973911 -3.33412 -0.324564 0.773382
3.9707 0.385134 -0.775448 4 -0.202802 -0.0210341 -0.978994 -3.9707 -0.385134 0.775448
5.98505 0.579459 0.526072 15 -0.957175 -0.287944 -0.0300847 -5.98505 -0.579459 -0.526072
4.83288 0.467908 -0.769032 3 -0.163702 -0.0135538 -0.986417 -4.83288 -0.467908 0.769032
6.0147 0.580211 -0.741941 21 -0.122289 -0.0132703 -0.992406 -6.0147 -0.580211 0.741941
5.97752 0.574518 -0.525375 26 -0.946323 -0.320784 0.0396299 -5.97752 -0.574518 0.525375
5.99564 0.576259 1.1708 19 -0.870334 -0.492381 0.00893944 -5.99564 -0.576259 -1.1708
5.99974 0.573483 -0.105203 15 -0.0174153 -0.00179766 -0.999847 -5.99974 -0.573483 0.105203
5.98072 0.562185 0.104854 17 -0.937428 -0.34761 -0.0199178 -5.98072 -0.562185 -0.104854
5.99948 0.561836 0.315795 21 -0.917132 -0.398175 -0.0180211 -5.99948 -0.561836 -0.315795
4.82268 0.449936 -0.767155 3 -0.172383 -0.0113883 -0.984964 -4.82268 -0.449936 0.767155
5.99175 0.551619 -0.105029 17 -0.885442 -0.464342 -0.0194777 -5.99175 -0.551619 0.105029
5.99659 0.542567 0.105098 15 -0.885442 -0.464342 -0.0194777 -5.99659 -0.542567 -0.105098
3.32466 0.300228 -0.770682 6 -0.0457198 -0.00999761 0.998904 -3.32466 -0.300228 0.770682
3.98887 0.359507 -0.778501 4 -0.19154 -0.0153021 -0.981366 -3.98887 -0.359507 0.778501
6.02457 0.541919 0.52921 16 -0.963782 -0.247427 -0.0995147 -6.02457 -0.541919 -0.52921
4.82225 0.432921 -0.766842 3 0.0946565 0.0112427 0.995447 -4.82225 -0.432921 0.766842
6.00072 0.537659 0.739747 17 -0.963782 -0.247427 -0.0995147 -6.00072 -0.537659 -0.739747
6.00206 0.533559 -0.315795 19 -0.77074 -0.635461 -0.0463624 -6.00206 -0.533559 0.315795
6.01953 0.532992 -0.105482 15 -0.885442 -0.464342 -0.0194777 -6.01953 -0.532992 0.105482
2.91763 0.254234 -0.784739 7 -0.261392 -0.019758 -0.96503 -2.91763 -0.254234 0.784739
3.98228 0.344904 -0.776974 4 -0.19154 -0.0153021 -0.981366 -3.98228 -0.344904 0.776974
6.03238 0.521399 0.529733 16 -0.963782 -0.247427 -0.0995147 -6.03238 -0.521399 -0.529733
4.82964 0.416595 -0.76778 3 -0.163702 -0.0135538 -0.986417 -4.82964 -0.416595 0.76778
6.01442 0.517735 0.741209 19 -0.963782 -0.247427 -0.0995147 -6.01442 -0.517735 -0.741209
6.02256 0.516315 0.957379 17 -0.912362 -0.409266 0.00985339 -6.02256 -0.516315 -0.957379
6.02688 0.515629 -0.52921 23 -0.990162 -0.134995 -0.0368167 -6.02688 -0.515629 0.52921
6.0218 0.514132 -0.316737 21 -0.77074 -0.635461 -0.0463624 -6.0218 -0.514132 0.316737
6.01737 0.511642 -0.105413 15 -0.885442 -0.464342 -0.0194777 -6.01737 -0.511642 0.105413
2.93394 0.244825 -0.78888 7 -0.268155 -0.0137893 -0.963277 -2.93394 -0.244825 0.78888
6.02813 0.503021 0.105587 15 -0.917132 -0.398175 -0.0180211 -6.02813 -0.503021 -0.105587
3.33056 0.277334 -0.771582 6 0.172971 0.00919928 0.984884 -3.33056 -0.277334 0.771582
6.02494 0.500634 0.316842 21 -0.917132 -0.398175 -0.0180211 -6.02494 -0.500634 -0.316842
3.97178 0.329333 -0.774685 4 -0.19154 -0.0153021 -0.981366 -3.97178 -0.329333 0.774685
6.04219 0.499944 0.53043 16 -0.963782 -0.247427 -0.0995147 -6.04219 -0.499944 -0.53043
4.8331 0.399053 -0.768093 3 -0.163702 -0.0135538 -0.986417 -4.8331 -0.399053 0.768093
6.02806 0.497716 0.742672 17 -0.930866 -0.36536 0.000427981 -6.02806 -0.497716 -0.742672
6.04427 0.494809 1.17882 19 -0.959835 -0.274618 -0.0574695 -6.04427 -0.494809 -1.17882
6.03559 0.493035 -0.317365 23 -0.923227 -0.381106 0.049086 -6.03559 -0.493035 0.317365
6.03861 0.492221 1.39875 17 -0.959835 -0.274618 -0.0574695 -6.03861 -0.492221 -1.39875
6.03307 0.491769 -0.105657 17 -0.874039 -0.482133 -0.0600218 -6.03307 -0.491769 0.105657
6.04172 0.476557 0.744134 19 -0.930866 -0.36536 0.000427981 -6.04172 -0.476557 -0.744134
6.05962 0.476901 -0.746328 21 0.1206 0.00876205 0.992662 -6.05962 -0.476901 0.746328
6.03784 0.475187 0.959256 17 -0.839425 -0.543476 4.81572e-05 -6.03784 -0.475187 -0.959256
6.03033 0.47354 -0.52921 20 -0.990162 -0.134995 -0.0368167 -6.03033 -0.47354 0.52921
6.04792 0.47386 1.1792 17 -0.839425 -0.543476 4.81572e-05 -6.04792 -0.47386 -1.1792
6.0532 0.473208 -0.318203 21 -0.923227 -0.381106 0.049086 -6.0532 -0.473208 0.318203
2.92403 0.223451 -0.785775 8 -0.261392 -0.019758 -0.96503 -2.92403 -0.223451 0.785775
3.3363 0.254373 -0.772482 6 -0.2262 -0.0182097 -0.973911 -3.3363 -0.254373 0.772482
6.04621 0.459924 0.317784 19 -0.861773 -0.506929 0.0192333 -6.04621 -0.459924 -0.317784
4.0053 0.303972 -0.78079 4 -0.267562 -0.00746884 -0.963512 -4.0053 -0.303972 0.78079
6.05348 0.458354 0.531127 15 0.0857044 0.00534162 -0.996306 -6.05348 -0.458354 -0.531127
6.04723 0.456816 0.744622 19 -0.930866 -0.36536 0.000427981 -6.04723 -0.456816 -0.744622
6.04188 0.453231 -0.530081 25 -0.855458 -0.517623 0.0160736 -6.04188 -0.453231 0.530081
6.05338 0.454094 1.17996 17 -0.839425 -0.543476 4.81572e-05 -6.05338 -0.454094 -1.17996
6.05474 0.453133 -0.318203 21 -0.923227 -0.381106 0.049086 -6.05474 -0.453133 0.318203
6.06319 0.452705 1.40369 19 -0.954344 -0.298283 -0.0159584 -6.06319 -0.452705 -1.40369
6.05829 0.451273 -0.106041 17 -0.874039 -0.482133 -0.0600218 -6.05829 -0.451273 0.106041
2.9286 0.214036 -0.78681 8 0.231334 0.0132777 0.972784 -2.9286 -0.214036 0.78681
3.33328 0.242442 -0.771582 6 0.172971 0.00919928 0.984884 -3.33328 -0.242442 0.771582
6.06689 0.439139 0.532173 16 0.0857044 0.00534162 -0.996306 -6.06689 -0.439139 -0.532173
6.05275 0.435989 0.745109 19 -0.930866 -0.36536 0.000427981 -6.05275 -0.435989 -0.745109
6.07056 0.435145 0.963949 16 -0.839425 -0.543476 4.81572e-05 -6.07056 -0.435145 -0.963949
6.0633 0.433558 -0.531824 25 -0.855458 -0.517623 0.0160736 -6.0633 -0.433558 0.531824
6.06226 0.432423 -0.318517 19 -0.923227 -0.381106 0.049086 -6.06226 -0.432423 0.318517
6.06085 0.431259 1.40279 20 -0.954344 -0.298283 -0.0159584 -6.06085 -0.431259 -1.40279
2.93708 0.203835 -0.78888 7 -0.268155 -0.0137893 -0.963277 -2.93708 -0.203835 0.78888
3.34577 0.231614 -0.774282 6 -0.2262 -0.0182097 -0.973911 -3.34577 -0.231614 0.774282
6.08203 0.415698 -0.748522 19 0.1206 0.00876205 0.992662 -6.08203 -0.415698 0.748522
6.08781 0.41289 1.18607 17 -0.868982 -0.493738 0.0330654 -6.08781 -0.41289 -1.18607
6.07576 0.411008 -0.319145 21 -0.855458 -0.517623 0.0160736 -6.07576 -0.411008 0.319145
6.07017 0.409565 1.40459 19 -0.954344 -0.298283 -0.0159584 -6.07017 -0.409565 -1.40459
6.07725 0.410044 -0.10632 17 -0.874039 -0.482133 -0.0600218 -6.07725 -0.410044 0.10632
6.08395 0.39983 0.106425 15 -0.833188 -0.552988 -0.00146586 -6.08395 -0.39983 -0.106425
4.00826 0.262014 -0.78079 5 0.18284 0.00790962 0.983111 -4.00826 -0.262014 0.78079
6.08344 0.394466 0.748522 17 0.120963 0.00704142 -0.992632 -6.08344 -0.394466 -0.748522
6.09342 0.394045 -0.74974 23 -0.912232 -0.408718 -0.0279864 -6.09342 -0.394045 0.74974
6.08732 0.392584 0.966139 16 -0.868982 -0.493738 0.0330654 -6.08732 -0.392584 -0.966139
6.10489 0.392647 1.18912 17 -0.868982 -0.493738 0.0330654 -6.10489 -0.392647 -1.18912
3.34346 0.207425 -0.773382 6 -0.2262 -0.0182097 -0.973911 -3.34346 -0.207425 0.773382
6.09397 0.376993 0.319982 21 -0.833188 -0.552988 -0.00146586 -6.09397 -0.376993 -0.319982
6.09509 0.375994 0.534265 15 0.0857044 0.00534162 -0.996306 -6.09509 -0.375994 -0.534265
4.83251 0.297264 -0.766842 4 -0.172383 -0.0113883 -0.984964 -4.83251 -0.297264 0.766842
6.11252 0.374928 0.751934 17 0.120963 0.00704142 -0.992632 -6.11252 -0.374928 -0.751934
6.1064 0.372416 0.968955 15 -0.868982 -0.493738 0.0330654 -6.1064 -0.372416 -0.968955
6.10622 0.371333 1.18912 17 -0.868982 -0.493738 0.0330654 -6.10622 -0.371333 -1.18912
6.10984 0.369415 1.41314 20 -0.857606 -0.513741 0.0241102 -6.10984 -0.369415 -1.41314
6.096 0.367508 -0.106599 15 0.017352 0.000938177 0.999849 -6.096 -0.367508 0.106599
6.09058 0.357581 0.106495 14 -0.830366 -0.554341 0.0565585 -6.09058 -0.357581 -0.106495
6.1112 0.356651 0.320819 21 -0.830366 -0.554341 0.0565585 -6.1112 -0.356651 -0.320819
4.0002 0.233452 -0.778882 5 -0.267562 -0.00746884 -0.963512 -4.0002 -0.233452 0.778882
4.82958 0.280164 -0.766216 3 -0.172383 -0.0113883 -0.984964 -4.82958 -0.280164 0.766216
6.10983 0.353361 0.751446 17 0.120963 0.00704142 -0.992632 -6.10983 -0.353361 -0.751446
6.1198 0.352867 -0.752665 21 -0.912232 -0.408718 -0.0279864 -6.1198 -0.352867 0.752665
6.11887 0.348527 1.41494 17 -0.857606 -0.513741 0.0241102 -6.11887 -0.348527 -1.41494
2.93192 0.162381 -0.78681 7 0.231334 0.0132777 0.972784 -2.93192 -0.162381 0.78681
6.11176 0.33742 0.106844 14 -0.830366 -0.554341 0.0565585 -6.11176 -0.33742 -0.106844
3.34093 0.183862 -0.772482 6 0.172971 0.00919928 0.984884 -3.34093 -0.183862 0.772482
6.11241 0.335318 0.320819 21 -0.836489 -0.542257 0.079009 -6.11241 -0.335318 -0.320819
4.00883 0.219919 -0.780409 4 0.18284 0.00790962 0.983111 -4.00883 -0.219919 0.780409
6.12741 0.335065 0.536879 15 -0.836489 -0.542257 0.079009 -6.12741 -0.335065 -0.536879
4.84236 0.263948 -0.768093 4 -0.0406333 0.00161967 0.999173 -4.84236 -0.263948 0.768093
6.12292 0.33268 0.752909 15 0.120963 0.00704142 -0.992632 -6.12292 -0.33268 -0.752909
6.12857 0.330838 0.972084 16 -0.914712 -0.402498 -0.0360236 -6.12857 -0.330838 -0.972084
6.12167 0.330466 -0.536356 22 -0.912232 -0.408718 -0.0279864 -6.12167 -0.330466 0.536356
6.1168 0.328062 -0.321029 19 -0.93626 -0.344817 0.0672154 -6.1168 -0.328062 0.321029
6.14235 0.327285 -0.107367 15 0.017352 0.000938177 0.999849 -6.14235 -0.327285 0.107367
2.94016 0.153058 -0.78888 7 0.255408 0.00914839 0.96679 -2.94016 -0.153058 0.78888
6.12346 0.315559 0.321343 19 -0.836489 -0.542257 0.079009 -6.12346 -0.315559 -0.321343
6.13985 0.313181 0.754859 15 -0.89635 -0.443199 0.0114466 -6.13985 -0.313181 -0.754859
6.14147 0.311114 0.973961 16 -0.914712 -0.402498 -0.0360236 -6.14147 -0.311114 -0.973961
6.13671 0.309799 -0.537577 21 -0.907614 -0.419774 -0.00507182 -6.13671 -0.309799 0.537577
6.14501 0.310218 1.19599 17 -0.884138 -0.466533 -0.0254338 -6.14501 -0.310218 -1.19599
6.12584 0.308178 -0.321447 19 -0.907614 -0.419774 -0.00507182 -6.12584 -0.308178 0.321447
3.346 0.161306 -0.773382 6 0.21518 0.00810577 0.976541 -3.346 -0.161306 0.773382
6.1325 0.294564 0.321761 21 -0.836489 -0.542257 0.079009 -6.1325 -0.294564 -0.321761
3.98869 0.190894 -0.776211 4 0.185631 0.00855328 0.982582 -3.98869 -0.190894 0.776211
4.84606 0.230229 -0.768406 4 0.12679 0.00357605 0.991923 -4.84606 -0.230229 0.768406
6.1528 0.29231 0.756321 17 -0.89635 -0.443199 0.0114466 -6.1528 -0.29231 -0.756321
6.15484 0.291333 -0.756565 20 -0.796968 -0.59979 -0.0713675 -6.15484 -0.291333 0.756565
6.14252 0.289676 0.973961 16 -0.914712 -0.402498 -0.0360236 -6.14252 -0.289676 -0.973961
6.13975 0.288468 -0.537751 22 -0.907614 -0.419774 -0.00507182 -6.13975 -0.288468 0.537751
6.15243 0.285836 -0.107507 16 0.0172581 0.00055552 0.999851 -6.15243 -0.285836 0.107507
6.14293 0.274651 0.107332 15 -0.830366 -0.554341 0.0565585 -6.14293 -0.274651 -0.107332
3.35825 0.149562 -0.776081 6 -0.00254051 0.00109541 0.999996 -3.35825 -0.149562 0.776081
6.16177 0.270106 0.757296 17 -0.928092 -0.349971 -0.127144 -6.16177 -0.270106 -0.757296
6.16126 0.269007 0.976777 15 -0.914712 -0.402498 -0.0360236 -6.16126 -0.269007 -0.976777
6.15884 0.266748 1.19828 17 -0.884138 -0.466533 -0.0254338 -6.15884 -0.266748 -1.19828
6.1638 0.265884 -0.323332 19 -0.869551 -0.493842 -0.000195612 -6.1638 -0.265884 0.323332
6.16208 0.264736 1.42394 17 0.221686 0.00658395 -0.975096 -6.16208 -0.264736 -1.42394
6.17336 0.265221 -0.107856 14 0.0172581 0.00055552 0.999851 -6.17336 -0.265221 0.107856
2.9339 0.121427 -0.78681 8 0.231334 0.0132777 0.972784 -2.9339 -0.121427 0.78681
6.1518 0.254608 0.107472 15 0.0172663 0.000490749 -0.999851 -6.1518 -0.254608 -0.107472
6.16235 0.252893 0.323227 21 -0.847183 -0.527424 0.0640666 -6.16235 -0.252893 -0.323227
6.16931 0.251022 0.540191 13 -0.847183 -0.527424 0.0640666 -6.16931 -0.251022 -0.540191
6.17056 0.249994 0.758271 15 -0.928092 -0.349971 -0.127144 -6.17056 -0.249994 -0.758271
6.174 0.247975 0.978654 15 -0.868286 -0.495886 -0.0133183 -6.174 -0.247975 -0.978654
6.16948 0.246715 -0.540191 22 -0.869551 -0.493842 -0.000195612 -6.16948 -0.246715 0.540191
6.16362 0.246481 1.19904 17 -0.868286 -0.495886 -0.0133183 -6.16362 -0.246481 -1.19904
6.16066 0.245282 -0.323122 19 -0.907614 -0.419774 -0.00507182 -6.16066 -0.245282 0.323122
6.17263 0.233894 0.107821 15 0.0172663 0.000490749 -0.999851 -6.17263 -0.233894 -0.107821
4.01988 0.150915 -0.781935 4 0.18284 0.00790962 0.983111 -4.01988 -0.150915 0.781935
6.19002 0.231308 0.541934 15 -0.847183 -0.527424 0.0640666 -6.19002 -0.231308 -0.541934
4.8383 0.179949 -0.766842 4 -0.172383 -0.0113883 -0.984964 -4.8383 -0.179949 0.766842
6.18667 0.226855 0.980531 16 -0.868286 -0.495886 -0.0133183 -6.18667 -0.226855 -0.980531
6.18225 0.225613 -0.541237 22 -0.796968 -0.59979 -0.0713675 -6.18225 -0.225613 0.541237
6.18014 0.225535 1.2021 19 -0.868286 -0.495886 -0.0133183 -6.18014 -0.225535 -1.2021
6.17345 0.224215 -0.32375 19 -0.869551 -0.493842 -0.000195612 -6.17345 -0.224215 0.32375
6.18321 0.223486 1.42844 22 0.221686 0.00658395 -0.975096 -6.18321 -0.223486 -1.42844
2.9424 0.101209 -0.78888 7 0.255408 0.00914839 0.96679 -2.9424 -0.101209 0.78888
6.17195 0.210138 0.323646 19 -0.847183 -0.527424 0.0640666 -6.17195 -0.210138 -0.323646
3.99882 0.13545 -0.777737 4 0.185631 0.00855328 0.982582 -3.99882 -0.13545 0.777737
4.85078 0.162613 -0.768719 3 0.12679 0.00357605 0.991923 -4.85078 -0.162613 0.768719
6.20093 0.204624 -0.542806 20 -0.785316 -0.617102 -0.0496422 -6.20093 -0.204624 0.542806
6.19568 0.201203 1.43114 20 0.221686 0.00658395 -0.975096 -6.19568 -0.201203 -1.43114
6.20378 0.201467 -0.108345 11 0.0172581 0.00055552 0.999851 -6.20378 -0.201467 0.108345
6.19813 0.190455 0.10824 15 0.0172663 0.000490749 -0.999851 -6.19813 -0.190455 -0.10824
3.35611 0.102538 -0.775181 6 0.21518 0.00810577 0.976541 -3.35611 -0.102538 0.775181
6.20063 0.188365 0.325111 19 -0.847183 -0.527424 0.0640666 -6.20063 -0.188365 -0.325111
3.97768 0.120836 -0.77354 4 -0.00294008 -0.000643945 0.999996 -3.97768 -0.120836 0.77354
4.85131 0.145678 -0.768719 6 0.12679 0.00357605 0.991923 -4.85131 -0.145678 0.768719
6.22251 0.184682 -0.764365 16 -0.785316 -0.617102 -0.0496422 -6.22251 -0.184682 0.764365
6.19999 0.182928 0.982409 16 -0.766393 -0.640825 0.0445449 -6.19999 -0.182928 -0.982409
6.20219 0.179743 1.43249 24 0.221686 0.00658395 -0.975096 -6.20219 -0.179743 -1.43249
6.21248 0.178956 -0.108484 14 0.0172581 0.00055552 0.999851 -6.21248 -0.178956 0.108484
6.20276 0.168926 0.10831 14 0.0172663 0.000490749 -0.999851 -6.20276 -0.168926 -0.10831
3.36035 0.0909287 -0.776081 6 -0.00254051 0.00109541 0.999996 -3.36035 -0.0909287 0.776081
6.21323 0.16704 0.325739 19 -0.889347 -0.456481 0.0262174 -6.21323 -0.16704 -0.325739
3.982 0.107055 -0.774303 5 0.185631 0.00855328 0.982582 -3.982 -0.107055 0.774303
6.224 0.166243 0.544723 15 -0.928092 -0.349971 -0.127144 -6.224 -0.166243 -0.544723
4.85772 0.128901 -0.769658 7 -0.162066 -0.00327471 -0.986775 -4.85772 -0.128901 0.769658
6.21836 0.161748 0.985224 18 -0.766393 -0.640825 0.0445449 -6.21836 -0.161748 -0.985224
6.23938 0.160116 -0.3271 27 -0.987485 -0.00620857 0.157593 -6.23938 -0.160116 0.3271
6.22031 0.15854 1.43654 20 -0.857385 -0.514529 0.0122693 -6.22031 -0.15854 -1.43654
6.2133 0.147511 0.108484 35 0.0171666 -0.00018409 -0.999853 -6.2133 -0.147511 -0.108484
6.23172 0.14686 0.326681 34 -0.889347 -0.456481 0.0262174 -6.23172 -0.14686 -0.326681
4.85419 0.111854 -0.769032 4 0.12679 0.00357605 0.991923 -4.85419 -0.111854 0.769032
6.23553 0.142592 0.765827 38 0.120614 0.002455 -0.992697 -6.23553 -0.142592 -0.765827
6.2554 0.141957 -0.768264 2 0.121066 0.00137899 0.992643 -6.2554 -0.141957 0.768264
6.25046 0.141845 0.99023 31 -0.766393 -0.640825 0.0445449 -6.25046 -0.141845 -0.99023
6.22265 0.140127 -0.544549 30 -0.998556 0.0424819 -0.0328791 -6.22265 -0.140127 0.544549
6.22785 0.139154 1.21087 38 -0.857385 -0.514529 0.0122693 -6.22785 -0.139154 -1.21087
6.23191 0.13816 -0.326681 27 -0.987485 -0.00620857 0.157593 -6.23191 -0.13816 0.326681
2.94739 0.0601952 -0.789916 7 0.255408 0.00914839 0.96679 -2.94739 -0.0601952 0.789916
6.23575 0.127354 0.108868 15 0.0171666 -0.00018409 -0.999853 -6.23575 -0.127354 -0.108868
6.23419 0.125145 0.326786 19 -0.889347 -0.456481 0.0262174 -6.23419 -0.125145 -0.326786
6.23597 0.121915 0.765827 15 0.120614 0.002455 -0.992697 -6.23597 -0.121915 -0.765827
6.25187 0.121134 -0.767777 2 0.121066 0.00137899 0.992643 -6.25187 -0.121134 0.767777
6.24202 0.118764 1.21355 22 -0.857385 -0.514529 0.0122693 -6.24202 -0.118764 -1.21355
6.24462 0.116633 1.44194 15 -0.991452 -0.0794461 -0.103491 -6.24462 -0.116633 -1.44194
6.24798 0.115605 -0.109078 14 -0.860201 -0.509846 0.0105386 -6.24798 -0.115605 0.109078
6.24537 0.0981091 0.989292 16 -0.998305 -0.0581899 0.000919319 -6.24537 -0.0981091 -0.989292
6.25932 0.0983281 -0.547687 18 -0.0881814 -0.0012522 -0.996104 -6.25932 -0.0983281 0.547687
6.25614 0.0971891 1.21622 17 -0.998305 -0.0581899 0.000919319 -6.25614 -0.0971891 -1.21622
6.25863 0.0950398 1.44509 16 -0.991452 -0.0794461 -0.103491 -6.25863 -0.0950398 -1.44509
6.26848 0.0842502 0.109427 15 -0.860201 -0.509846 0.0105386 -6.26848 -0.0842502 -0.109427
6.25887 0.0819331 0.328042 19 -0.98642 -0.0150075 -0.163555 -6.25887 -0.0819331 -0.328042
6.26355 0.080904 0.548035 15 -0.999711 -0.0211631 -0.0113932 -6.26355 -0.080904 -0.548035
6.27041 0.0788006 0.769971 17 -0.999711 -0.0211631 -0.0113932 -6.27041 -0.0788006 -0.769971
6.25358 0.0764059 0.990543 16 -0.998305 -0.0581899 0.000919319 -6.25358 -0.0764059 -0.990543
6.25763 0.0764554 -0.547512 18 -0.0881814 -0.0012522 -0.996104 -6.25763 -0.0764554 0.547512
6.27295 0.0744557 -0.328775 15 0.0521406 0.000270126 0.99864 -6.27295 -0.0744557 0.328775
6.26863 0.0722132 -0.109427 14 -0.860201 -0.509846 0.0105386 -6.26863 -0.0722132 0.109427
6.26874 0.0623669 0.109427 15 -0.0177419 -0.000216667 0.999843 -6.26874 -0.0623669 -0.109427
3.37701 0.033008 -0.77968 5 -0.22696 -0.00132242 -0.973903 -3.37701 -0.033008 0.77968
4.00485 0.0384458 -0.778501 4 -0.314804 0.00420314 -0.949147 -4.00485 -0.0384458 0.778501
6.27462 0.0569496 0.770458 19 -0.932243 -0.267753 -0.243376 -6.27462 -0.0569496 -0.770458
6.26981 0.0547144 -0.548558 16 -0.0881814 -0.0012522 -0.996104 -6.26981 -0.0547144 0.548558
6.28218 0.0537289 1.22118 16 -0.859063 -0.511829 -0.00653477 -6.28218 -0.0537289 -1.22118
6.28253 0.0515358 1.45048 16 -0.961789 -0.246836 -0.118463 -6.28253 -0.0515358 -1.45048
6.28084 0.0504288 -0.109636 14 0.0172062 -0.000113579 0.999852 -6.28084 -0.0504288 0.109636
2.94021 0.0195002 -0.787845 7 0.256992 -0.000286138 0.966414 -2.94021 -0.0195002 0.787845
6.29125 0.0384311 0.329717 16 -0.052761 -0.000206168 0.998607 -6.29125 -0.0384311 -0.329717
4.003 0.024453 -0.778119 4 -0.314804 0.00420314 -0.949147 -4.003 -0.024453 0.778119
6.28754 0.0329247 0.995862 16 -0.157142 0.000166757 0.987576 -6.28754 -0.0329247 -0.995862
6.27993 0.0328848 -0.54943 18 -0.0881814 -0.0012522 -0.996104 -6.27993 -0.0328848 0.54943
6.29698 0.0285751 -0.109915 14 0.0172062 -0.000113579 0.999852 -6.29698 -0.0285751 0.109915
2.94026 0.00923887 -0.787845 8 0.256992 -0.000286138 0.966414 -2.94026 -0.00923887 0.787845
6.29134 0.0164686 0.329717 16 -0.052761 -0.000206168 0.998607 -6.29134 -0.0164686 -0.329717
6.31187 0.0154238 0.552219 15 0.0863731 -0.000209755 -0.996263 -6.31187 -0.0154238 -0.552219
4.85349 0.011013 -0.768719 3 0.151228 -0.00311931 0.988494 -4.85349 -0.011013 0.768719
6.2828 0.0131568 0.771433 15 -0.932243 -0.267753 -0.243376 -6.2828 -0.0131568 -0.771433
6.2709 0.0120404 -0.769971 6 0.121066 0.00137899 0.992643 -6.2709 -0.0120404 0.769971
6.31527 0.0110235 1.00024 15 -0.157142 0.000166757 0.987576 -6.31527 -0.0110235 -1.00024
6.29993 0.0109967 -0.551173 21 -0.0881814 -0.0012522 -0.996104 -6.29993 -0.0109967 0.551173
6.30204 0.00989753 1.22499 17 -0.859063 -0.511829 -0.00653477 -6.30204 -0.00989753 -1.22499
6.29336 0.00878856 -0.329821 15 0.0521406 0.000270126 0.99864 -6.29336 -0.00878856 0.329821
3.38106 -0.00236043 -0.78058 5 -0.22696 -0.00132242 -0.973903 -3.38106 0.00236043 0.78058
4.01289 -0.00350191 -0.780027 4 -0.201662 0.00471407 -0.979444 -4.01289 0.00350191 0.780027
6.31587 -0.00661397 0.552567 15 0.0863731 -0.000209755 -0.996263 -6.31587 0.00661397 -0.552567
6.3106 -0.00881127 0.774845 15 0.121294 -0.00134561 -0.992616 -6.3106 0.00881127 -0.774845
6.30737 -0.0110084 0.998991 15 -0.157142 0.000166757 0.987576 -6.30737 0.0110084 -0.998991
6.31387 -0.0110198 -0.552393 17 -0.923137 -0.383796 0.0227864 -6.31387 0.0110198 0.552393
6.31774 -0.0121292 1.22805 16 -0.859063 -0.511829 -0.00653477 -6.31774 0.0121292 -1.22805
6.31 -0.014317 1.45678 16 0.209131 -0.012196 -0.977812 -6.31 0.014317 -1.45678
6.30728 -0.0275209 0.330554 18 -0.052761 -0.000206168 0.998607 -6.30728 0.0275209 -0.330554
4.005 -0.0174752 -0.778501 4 -0.201662 0.00471407 -0.979444 -4.005 0.0174752 0.778501
4.86135 -0.0229087 -0.769971 3 0.143919 -0.00232972 0.989587 -4.86135 0.0229087 0.769971
6.32244 -0.0308975 0.776308 17 0.121294 -0.00134561 -0.992616 -6.32244 0.0308975 -0.776308
6.28671 -0.0318202 -0.77192 6 -0.949278 -0.284406 0.134108 -6.28671 0.0318202 0.77192
6.32522 -0.0353271 -0.331496 15 -0.923137 -0.383796 0.0227864 -6.32522 0.0353271 0.331496
3.98921 -0.0313318 -0.775448 4 -0.0155318 -0.015721 0.999756 -3.98921 0.0313318 0.775448
6.33161 -0.0508345 0.553962 15 -0.897067 -0.437002 0.0655722 -6.33161 0.0508345 -0.553962
4.86124 -0.0398779 -0.769971 3 0.143919 -0.00232972 0.989587 -4.86124 0.0398779 0.769971
6.34612 -0.0531664 0.779233 15 0.121294 -0.00134561 -0.992616 -6.34612 0.0531664 -0.779233
6.31038 -0.0539684 -0.774845 6 -0.949278 -0.284406 0.134108 -6.31038 0.0539684 0.774845
