x,y,z,intensity
2.97189,3.09906,-0.527207,69
2.96746,3.09336,0.678926,55
2.96597,3.09072,-0.37477,66
2.96663,3.09034,0.832691,55
2.95632,3.07851,-0.223684,69
4.04532,4.21253,1.34836,19
2.98263,3.10482,-0.0751501,91
4.02242,4.18576,1.5555,20
1.98505,2.05773,-0.766104,7
2.96883,3.07647,0.0746265,68
2.28329,2.36525,-0.758985,7
2.96575,3.0722,0.223789,70
2.63894,2.7327,-0.738431,6
2.99143,3.09664,0.376687,72
2.98152,3.0853,-0.679551,51
2.97603,3.07854,0.525744,66
2.97327,3.07569,-0.525257,67
2.98397,3.08568,0.679864,49
2.97558,3.07593,-0.374421,63
2.97902,3.07841,0.832691,54
2.97421,3.07236,-0.224103,68
4.04864,4.18225,1.34386,22
2.99367,3.09139,-0.0751152,84
4.03651,4.16681,1.55447,25
1.99186,2.05114,-0.766104,9
2.97902,3.0666,0.0746265,68
2.29112,2.35766,-0.758985,7
2.97036,3.05662,0.22337,72
2.63704,2.71267,-0.735378,6
2.99751,3.08241,0.376164,70
2.98623,3.06973,-0.6783,54
2.98622,3.06866,0.525744,64
2.97792,3.06012,-0.524282,69
2.9873,3.06869,0.6783,53
2.98854,3.0689,-0.37477,63
2.99469,3.07413,0.834217,55
2.9788,3.05676,-0.223684,71
4.06249,4.16881,1.34386,22
2.99693,3.07429,-0.0749406,82
4.04491,4.14787,1.5524,27
1.99865,2.04452,-0.766104,7
2.99476,3.06243,0.0747661,68
2.3112,2.36259,-0.763034,7
2.9866,3.05194,0.223789,70
2.64464,2.70251,-0.734996,8
3.00075,3.06534,0.375293,73
3.00468,3.06828,-0.680177,54
3.00194,3.06441,0.526719,60
2.99414,3.05538,-0.525257,67
3.00076,3.06106,0.678926,53
2.98755,3.04759,-0.373375,65
3.00487,3.06419,0.834217,54
3.00011,3.05827,-0.224521,79
4.07019,4.14764,1.34161,25
3.00624,3.06238,-0.0749057,87
4.05124,4.12545,1.54929,29
2.00171,2.0334,-0.764552,9
2.9914,3.03771,0.0744171,71
2.31943,2.35451,-0.763034,7
3.00003,3.04434,0.223998,70
2.65682,2.69606,-0.735759,8
3.00724,3.05059,0.37477,75
3.00428,3.04652,-0.677674,54
3.01122,3.0525,0.526476,64
3.00479,3.04491,-0.525257,66
3.00726,3.04635,0.677987,50
2.99817,3.03714,-0.373375,65
3.00727,3.0453,0.831927,58
3.01217,3.0492,-0.224626,74
4.08601,4.1348,1.34206,22
3.01551,3.05045,-0.0748708,82
4.06154,4.10717,1.54774,30
2.01016,2.02778,-0.765069,7
2.99917,3.02441,0.0743473,71
2.32077,2.33948,-0.760784,7
3.01205,3.03527,0.224103,72
2.72014,2.74111,-0.750643,1
3.02488,3.04714,0.375641,76
3.01211,3.03321,-0.677048,54
3.01207,3.03211,0.524769,63
3.0154,3.0344,-0.525257,64
3.02345,3.04144,0.679238,50
3.0149,3.03178,-0.374072,63
3.00957,3.02643,0.829638,55
3.00449,3.02026,-0.223265,71
4.0963,4.11637,1.34071,27
3.03319,3.04699,-0.0750453,87
4.07449,4.09159,1.54722,28
2.01485,2.01766,-0.764034,7
3.01819,3.02241,0.0745567,68
2.32204,2.32447,-0.758535,7
3.00992,3.01202,0.223161,72
3.03603,3.03603,0.375641,72
3.0274,3.02634,-0.677987,55
3.02544,3.02439,0.525257,66
3.02035,3.01825,-0.524282,66
3.03404,3.03087,0.679238,50
3.02264,3.01843,-0.373724,63
3.02898,3.0237,0.831927,55
3.01412,3.00782,-0.223161,76
4.10308,4.09306,1.33801,25
3.04239,3.03497,-0.0750104,91
4.08464,4.07325,1.54567,32
2.03284,2.02151,-0.768175,7
3.02925,3.01133,0.0745567,70
2.33054,2.31594,-0.758535,7
3.02094,3.00097,0.223161,72
3.04661,3.02542,0.375641,73
3.03514,3.01297,-0.677361,56
3.03369,3.01048,0.524769,63
3.03139,3.00716,-0.524282,67
3.03812,3.01278,0.677674,53
3.03599,3.01066,-0.374072,63
3.0451,3.01864,0.833454,55
3.03311,3.00571,-0.223789,78
4.11042,4.07186,1.33576,24
3.05492,3.0252,-0.0750453,87
4.0968,4.05554,1.54463,31
2.03026,2.0049,-0.764552,9
3.04116,3.00214,0.0745916,72
2.34555,2.31464,-0.760784,7
3.0314,2.99041,0.223161,70
3.04581,3.00357,0.374247,73
3.04845,3.00513,-0.677987,56
3.04983,3.00545,0.525744,66
3.03904,2.99377,-0.523794,64
3.04158,2.99522,0.67611,50
3.03512,2.98886,-0.372678,65
3.05002,3.00248,0.831927,55
3.04359,2.99511,-0.223789,79
4.12183,4.05476,1.33486,24
3.05405,3.00331,-0.0747661,84
4.10129,4.03173,1.54101,30
2.03724,1.9978,-0.764552,9
3.0402,2.9803,0.0743124,74
2.36057,2.31326,-0.763034,7
3.047,2.98593,0.223579,70
3.0577,2.99432,0.374421,75
3.04763,2.98342,-0.675484,56
3.06031,2.99478,0.525744,63
3.05463,2.98923,-0.524769,64
3.05432,2.98788,0.676736,50
3.04554,2.97825,-0.372678,65
3.05767,2.98907,0.831164,54
3.05688,2.98726,-0.223998,79
4.13386,4.0397,1.33441,25
3.07258,3.00155,-0.0749755,96
4.10911,4.01271,1.53894,29
2.04939,1.99643,-0.766622,9
3.04863,2.96881,0.0742774,71
2.35287,2.29046,-0.758085,6
3.05546,2.97442,0.223475,75
3.06761,2.98416,0.374421,75
3.06034,2.97605,-0.67611,55
3.06453,2.97908,0.524769,64
3.06453,2.97908,-0.524769,69
3.06705,2.98049,0.677361,50
3.05826,2.97091,-0.373027,66
3.06193,2.97344,0.829638,54
3.05817,2.96876,-0.22337,79
4.15143,4.03004,1.33576,27
3.0739,2.98298,-0.0747661,87
4.12239,3.99906,1.53894,30
2.05184,1.98559,-0.765069,7
3.0599,2.96008,0.0743124,77
2.37306,2.29484,-0.762134,7
3.06008,2.95818,0.223056,72
3.08465,2.98089,0.375293,78
3.06877,2.96451,-0.675797,57
3.06868,2.96339,0.523794,64
3.06634,2.96009,-0.523307,66
3.08169,2.97388,0.6783,55
3.07148,2.96298,-0.373375,66
3.07512,2.96546,0.830401,58
3.06564,2.95529,-0.223161,78
4.15004,4.00065,1.33081,27
3.07854,2.96668,-0.0746265,82
4.13632,3.98465,1.53894,29
2.06328,1.98207,-0.766622,9
3.06784,2.94607,0.0742425,74
2.37021,2.27533,-0.758535,7
3.06946,2.94556,0.222951,72
3.09556,2.96957,0.375293,76
3.08104,2.95461,-0.67611,56
3.08238,2.95487,0.524282,66
3.0743,2.94609,-0.52282,67
3.08401,2.95437,0.676423,55
3.08519,2.95446,-0.373724,66
3.09164,2.9596,0.831927,52
3.08222,2.94956,-0.223579,78
4.15904,3.98003,1.32901,27
3.0865,2.95262,-0.0745567,87
4.1495,3.96812,1.53842,30
2.06214,1.9665,-0.763516,9
3.0902,2.94585,0.0745218,72
2.38417,2.272,-0.760335,7
3.08312,2.93705,0.223161,69
3.09776,2.94996,0.374247,76
3.09471,2.94602,-0.676736,55
3.09319,2.94355,0.524282,58
3.08795,2.93754,-0.523307,67
3.09482,2.94304,0.676423,55
3.08394,2.93269,-0.372329,65
3.10195,2.94879,0.831927,52
3.08961,2.93603,-0.22337,76
4.17077,3.96207,1.32811,25
3.09295,2.93715,-0.074452,91
4.15141,3.94092,1.53376,27
2.06899,1.95929,-0.763516,10
3.08594,2.92129,0.0741727,78
2.3935,2.26501,-0.760784,7
3.09626,2.92901,0.22337,67
3.10514,2.93639,0.373898,76
3.09923,2.92978,-0.675484,56
3.10778,2.93683,0.525013,64
3.10108,2.92947,-0.523794,66
3.10795,2.93494,0.677048,53
3.09126,2.91917,-0.371981,65
3.10937,2.93525,0.831164,58
3.10419,2.92934,-0.223684,79
4.18458,3.94749,1.32811,25
3.10464,2.92771,-0.0744869,96
4.15952,3.9211,1.53169,29
2.08145,1.95735,-0.765587,9
3.09612,2.9105,0.0741727,77
2.4014,2.25664,-0.760784,7
3.10596,2.91873,0.22337,72
3.11538,2.92553,0.373898,76
3.10656,2.91624,-0.674858,56
3.11077,2.91917,0.523794,66
3.11077,2.91917,-0.523794,67
3.11478,2.92191,0.676423,53
3.10143,2.90837,-0.371981,66
3.11101,2.91632,0.828874,55
3.11148,2.91575,-0.223475,79
4.19764,3.93359,1.32811,27
3.11433,2.9174,-0.0744869,89
4.17532,3.90993,1.53273,27
2.09499,1.95703,-0.768175,7
3.10868,2.90295,0.0742425,77
2.40602,2.246,-0.759885,7
3.10686,2.90023,0.222742,72
3.12943,2.91926,0.374421,79
3.11911,2.90861,-0.675484,55
3.11753,2.90613,0.523307,66
3.11172,2.90072,-0.522332,66
3.12735,2.91426,0.677048,55
3.11981,2.90621,-0.373027,67
3.12353,2.90867,0.829638,55
3.10944,2.89453,-0.222637,79
4.19925,3.90903,1.32451,27
3.13277,2.91523,-0.0746963,94
4.18543,3.89343,1.53169,29
2.09722,1.94613,-0.766622,9
3.11829,2.89263,0.0742425,77
2.41202,2.23669,-0.759435,7
3.1155,2.88802,0.222637,75
3.14056,2.91022,0.374595,76
3.12873,2.89825,-0.675484,56
3.12715,2.89578,0.523307,61
3.12183,2.88983,-0.522332,66
3.1317,2.89796,0.675797,53
3.13286,2.89801,-0.373375,65
3.13316,2.89829,0.829638,58
3.12196,2.88692,-0.222847,81
4.20715,3.88905,1.32271,27
3.13412,2.89613,-0.0744869,94
4.20325,3.88273,1.53324,30
2.09297,1.92796,-0.762481,9
3.13278,2.88579,0.0743473,82
2.41552,2.2243,-0.758085,6
3.12409,2.87577,0.222533,78
3.14533,2.8933,0.373898,76
3.14224,2.88944,-0.67611,56
3.14309,2.89022,0.524282,63
3.13482,2.88161,-0.52282,66
3.13598,2.88166,0.674546,53
3.12828,2.87358,-0.371632,65
3.14666,2.88945,0.830401,55
3.1384,2.88086,-0.223265,79
4.21994,3.87229,1.32226,24
3.13684,2.87842,-0.0743124,87
4.20112,3.85367,1.52755,29
2.10539,1.92586,-0.764552,9
3.13448,2.86619,0.0741378,82
2.43516,2.22595,-0.761684,6
3.14198,2.87104,0.223056,73
3.15247,2.87961,0.37355,78
3.14648,2.87313,-0.674858,56
3.15073,2.876,0.523794,67
3.14829,2.87277,-0.523307,67
3.1509,2.87414,0.675484,50
3.13535,2.85996,-0.371283,65
3.15092,2.87315,0.828874,55
3.14844,2.86989,-0.223265,79
4.23343,3.85753,1.32226,27
3.15624,2.87498,-0.0745218,96
4.20951,3.83304,1.52548,27
2.11782,1.92369,-0.766622,9
3.14002,2.8512,0.0740331,77
2.43714,2.21219,-0.759885,6
3.1505,2.85871,0.222951,69
3.16398,2.86993,0.373724,79
3.15648,2.86213,-0.674858,56
3.15486,2.85965,0.52282,64
3.16125,2.86443,-0.523794,69
3.16237,2.86445,0.675797,53
3.15122,2.85435,-0.371981,66
3.1522,2.85423,0.826585,54
3.14955,2.85084,-0.222637,81
4.24398,3.84012,1.32136,27
3.16625,2.86394,-0.0745218,87
4.22429,3.81962,1.526,27
2.12452,1.91629,-0.766622,9
3.15144,2.84156,0.074068,79
2.4463,2.20498,-0.760335,7
3.157,2.84557,0.222742,69
2.92288,2.63362,-0.764763,1
3.17546,2.8602,0.373898,78
3.16646,2.85109,-0.674858,56
3.15892,2.84331,0.521845,64
3.1604,2.84464,-0.522088,57
3.17186,2.85395,0.675797,57
3.16412,2.84599,-0.372329,66
3.16798,2.84846,0.828111,58
3.15948,2.83982,-0.222637,79
4.25235,3.82211,1.32001,30
3.1802,2.85744,-0.0746265,91
4.23837,3.80688,1.52651,23
2.13086,1.90923,-0.766622,9
3.16383,2.83376,0.0741378,79
2.4536,2.19685,-0.760335,7
3.15898,2.82842,0.222218,76
2.90234,2.59773,-0.75713,1
3.18641,2.85098,0.374072,82
3.17884,2.84321,-0.675484,56
3.17721,2.84076,0.523307,67
3.16833,2.83282,-0.521845,61
3.17541,2.83815,0.674546,53
3.17354,2.83548,-0.372329,68
3.18327,2.84317,0.829638,58
3.17186,2.83199,-0.222847,78
4.26209,3.8054,1.31911,30
3.18369,2.84155,-0.0744869,94
4.24809,3.79024,1.52548,28
2.13141,1.89702,-0.764552,9
3.1762,2.82591,0.0742076,83
2.46378,2.19129,-0.761234,7
3.17431,2.82324,0.222637,73
2.94028,2.61418,-0.764763,1
3.19436,2.83908,0.373898,78
3.18825,2.83265,-0.675484,56
3.18662,2.83021,0.523307,67
3.18068,2.82493,-0.522332,67
3.1789,2.82236,0.673294,55
3.17995,2.8223,-0.371981,66
3.18974,2.82999,0.828874,55
3.18722,2.82676,-0.223265,76
4.26885,3.78607,1.31731,30
3.1886,2.827,-0.0743822,96
4.25485,3.771,1.52341,27
2.13769,1.88994,-0.764552,9
3.17806,2.80874,0.0740331,78
2.47395,2.18569,-0.762134,7
3.18515,2.81402,0.222742,78
2.94894,2.60441,-0.764763,1
3.19928,2.82451,0.373375,79
3.19318,2.81814,-0.674546,57
3.19896,2.82225,0.523794,66
3.1945,2.81831,-0.523063,70
3.19417,2.81703,0.674546,53
3.18032,2.80383,-0.370935,68
3.19616,2.8168,0.828111,55
3.19657,2.81617,-0.223265,78
4.28285,3.77318,1.31776,31
3.19796,2.81641,-0.0743822,96
4.26153,3.75177,1.52134,28
2.1446,1.88209,-0.764552,9
3.18683,2.79576,0.0739982,83
2.47462,2.17019,-0.759885,7
3.19593,2.80177,0.222742,79
2.96437,2.59877,-0.766289,1
3.20961,2.81277,0.373375,79
3.20052,2.80382,-0.67392,58
3.19734,2.80004,0.521845,67
3.20679,2.80733,-0.523307,69
3.20496,2.80474,0.674546,55
3.19707,2.79685,-0.371632,67
3.20499,2.80378,0.827729,61
3.19785,2.79655,-0.222637,78
4.29584,3.75543,1.31731,34
3.21478,2.80937,-0.0745218,96
4.27591,3.73537,1.52134,27
2.15731,1.87929,-0.766622,9
3.19958,2.78724,0.074068,82
2.48659,2.16537,-0.761234,7
3.20118,2.78667,0.222428,76
2.96499,2.58015,-0.763999,2
3.2244,2.80491,0.373898,76
3.21226,2.79336,-0.674233,56
3.20709,2.78886,0.521845,63
3.20458,2.7857,-0.521357,61
3.22069,2.79872,0.675797,53
3.20681,2.78567,-0.371632,67
3.21969,2.79587,0.828874,55
3.2126,2.78874,-0.222951,74
4.29485,3.72688,1.31281,34
3.22758,2.80075,-0.0745916,96
4.286,3.71789,1.5203,28
2.16678,1.87428,-0.767657,9
3.2128,2.77811,0.0741378,79
2.49893,2.16007,-0.762584,7
3.20484,2.77025,0.222009,75
2.96209,2.55952,-0.760946,3
3.23719,2.79624,0.374247,78
3.22648,2.78601,-0.675171,57
3.2248,2.78358,0.523063,70
3.21778,2.77653,-0.521845,60
3.22446,2.7823,0.674546,53
3.22255,2.77967,-0.372329,66
3.23537,2.78975,0.830401,58
3.21173,2.76838,-0.222218,75
4.30341,3.70805,1.31146,39
3.23128,2.78425,-0.074452,96
4.29164,3.69661,1.51771,43
2.17184,1.86544,-0.76714,7
3.22351,2.76875,0.0741727,78
2.51052,2.15558,-0.763934,7
3.21752,2.76165,0.222218,75
2.98442,2.56067,-0.764381,2
3.23786,2.77714,0.373201,78
3.2372,2.77658,-0.675484,56
3.23703,2.77545,0.523551,70
3.22244,2.76197,-0.521113,57
3.22965,2.76717,0.673607,50
3.22315,2.76063,-0.371283,65
3.24163,2.77645,0.829638,58
3.23606,2.7707,-0.223265,79
4.32308,3.7001,1.31371,37
3.2349,2.76775,-0.0743124,96
4.30305,3.68035,1.5172,33
2.16626,1.8482,-0.762999,9
3.22707,2.75229,0.0740331,78
2.51803,2.1468,-0.763934,7
3.23474,2.75688,0.222742,78
2.98691,2.54566,-0.762854,3
3.24553,2.7651,0.373027,79
3.23935,2.75886,-0.67392,58
3.24821,2.76542,0.523794,69
3.24567,2.76228,-0.523307,66
3.2408,2.75716,0.67392,55
3.23125,2.74807,-0.371109,61
3.24681,2.7613,0.828493,58
3.23963,2.75422,-0.222847,79
4.33449,3.68372,1.31326,36
3.25064,2.76162,-0.074452,100
4.3085,3.65905,1.51461,31
2.18776,1.85273,-0.768175,7
3.2275,2.73325,0.0738237,89
2.52253,2.13548,-0.763034,7
3.24129,2.74299,0.222533,78
3.01121,2.54738,-0.766671,4
3.26021,2.75704,0.37355,78
3.24944,2.74697,-0.67392,57
3.25026,2.74766,0.522576,70
3.25226,2.74838,-0.52282,67
3.25644,2.75093,0.675171,55
3.24539,2.74063,-0.371632,65
3.24491,2.73925,0.82544,58
3.24818,2.74104,-0.222742,81
4.33753,3.65902,1.31011,34
3.26637,2.75542,-0.0745916,100
4.32568,3.64773,1.51616,30
2.20013,1.85006,-0.770245,9
3.24515,2.72784,0.0739982,100
2.52288,2.11995,-0.760784,6
3.24932,2.73037,0.222428,75
3.0276,2.54316,-0.768579,4
3.27439,2.74949,0.374072,79
3.26052,2.73688,-0.674233,59
3.25879,2.73445,0.522332,66
3.25014,2.72623,-0.52087,63
3.26905,2.74209,0.675797,53
3.25494,2.72928,-0.371632,67
3.26348,2.73547,0.827729,52
3.2516,2.72455,-0.222323,76
4.34131,3.63635,1.30742,34
3.2729,2.74143,-0.0745218,96
4.33246,3.62764,1.51409,30
2.20954,1.84485,-0.771281,7
3.268,2.7286,0.0743124,100
2.54486,2.12406,-0.765283,7
3.25423,2.71517,0.222114,78
3.0244,2.52252,-0.765526,4
3.28244,2.73677,0.373898,78
3.27413,2.72984,-0.675171,57
3.26784,2.72363,0.522332,66
3.26222,2.71798,-0.521357,61
3.27253,2.7256,0.674546,53
3.27057,2.723,-0.372329,65
3.27253,2.72464,0.827729,58
3.26676,2.71886,-0.222742,79
4.34436,3.61445,1.30472,34
3.28245,2.72999,-0.0745218,100
4.34658,3.61373,1.51461,31
2.1978,1.82271,-0.765069,7
3.27596,2.7159,0.0742774,92
2.54776,2.11144,-0.763934,7
3.26369,2.7038,0.222114,78
3.01914,2.50121,-0.762091,3
3.28689,2.72206,0.373375,79
3.28517,2.71966,-0.675484,56
3.28345,2.71727,0.523307,64
3.27933,2.7129,-0.522576,72
3.27898,2.71164,0.67392,53
3.2673,2.70198,-0.370935,63
3.28808,2.7182,0.829256,54
3.27931,2.70999,-0.222951,81
4.35395,3.59678,1.30382,34
3.2858,2.71342,-0.0743822,100
4.35023,3.59116,1.5115,30
2.21012,1.81994,-0.76714,7
3.27616,2.69682,0.074068,79
2.56113,2.10748,-0.765733,7
3.28236,2.7,0.222742,79
3.03695,2.49814,-0.764381,4
3.2933,2.70803,0.373027,79
3.28548,2.70065,-0.673607,56
3.29905,2.71083,0.524282,67
3.28418,2.69766,-0.521845,60
3.293,2.70394,0.674858,50
3.27671,2.69056,-0.370935,66
3.29451,2.70421,0.828493,58
3.29338,2.70233,-0.223265,86
4.36346,3.57909,1.30292,36
3.30607,2.71081,-0.0746265,100
4.35677,3.57105,1.50943,31
2.22842,1.822,-0.771281,9
3.27626,2.67777,0.0738586,82
2.56244,2.0936,-0.763934,7
3.29331,2.68979,0.222847,76
3.04717,2.48876,-0.764763,4
3.30582,2.69904,0.373375,82
3.29489,2.68916,-0.673607,56
3.29618,2.68926,0.522332,66
3.30281,2.6937,-0.523307,66
3.30701,2.69617,0.675797,55
3.28917,2.68163,-0.371283,68
3.2948,2.68526,0.826203,54
3.28731,2.6782,-0.222218,79
4.3578,3.54907,1.29752,34
3.30776,2.69294,-0.074452,100
4.36021,3.54851,1.50633,32
2.23027,1.81055,-0.769728,9
3.2887,2.66884,0.0739284,82
2.56216,2.0785,-0.761684,7
3.29182,2.66948,0.222114,78
3.07719,2.49542,-0.770105,4
3.32141,2.6925,0.374072,79
3.30886,2.68138,-0.674546,57
3.30247,2.67524,0.521845,66
3.29985,2.67216,-0.521357,59
3.31948,2.6871,0.676423,53
3.3047,2.67514,-0.371981,68
3.30415,2.67374,0.826203,54
3.29508,2.66545,-0.222114,78
4.34743,3.51546,1.29077,33
3.32336,2.68641,-0.0745916,100
4.3846,3.54298,1.51047,32
2.23808,1.80397,-0.770245,9
3.30733,2.66487,0.0741378,82
2.57547,2.07443,-0.763484,8
3.2991,2.65729,0.222009,75
3.08894,2.48713,-0.770868,8
3.32613,2.67715,0.37355,78
3.31974,2.67105,-0.674858,56
3.31488,2.66618,0.522332,66
3.31225,2.66312,-0.521845,60
3.31451,2.66494,0.673607,49
3.31713,2.66609,-0.372329,65
3.32571,2.67203,0.829256,55
3.30748,2.65644,-0.222323,78
4.346,3.48928,1.28672,30
3.32601,2.67036,-0.074452,96
4.39029,3.52358,1.5084,32
2.24587,1.79735,-0.770763,9
3.31928,2.65639,0.0742076,79
2.5869,2.06954,-0.764834,7
3.3146,2.65075,0.222428,75
3.10681,2.48368,-0.773158,8
3.33234,2.66303,0.373201,78
3.33012,2.66126,-0.675171,57
3.32991,2.66013,0.523307,69
3.32106,2.65212,-0.521845,61
3.32534,2.65458,0.67392,55
3.31707,2.64703,-0.371283,66
3.33762,2.66343,0.830019,55
3.32252,2.65043,-0.222742,81
4.32707,3.45055,1.27772,27
3.33063,2.655,-0.0743473,94
4.3935,3.50101,1.50529,32
2.24426,1.78388,-0.768175,7
3.32227,2.63981,0.074068,79
2.60021,2.06534,-0.766633,7
3.32383,2.63916,0.222428,75
3.09965,2.46116,-0.769342,6
3.33803,2.64949,0.372852,78
3.33475,2.64593,-0.674233,56
3.34228,2.65096,0.523794,64
3.33341,2.64298,-0.522332,66
3.33304,2.64173,0.673607,50
3.32317,2.63297,-0.370935,68
3.33766,2.64445,0.827729,58
3.33175,2.63882,-0.222742,81
4.3177,3.41849,1.27142,24
3.34301,2.64584,-0.0744171,99
4.40115,3.48206,1.50374,34
2.25381,1.77804,-0.76921,7
3.32518,2.62325,0.0739284,83
2.59976,2.05022,-0.764384,6
3.34087,2.63373,0.222951,79
3.10402,2.44614,-0.768197,4
3.35242,2.64094,0.373375,79
3.34287,2.63247,-0.67392,57
3.34216,2.63191,0.522332,66
3.34886,2.63624,-0.523307,69
3.35,2.63619,0.675171,53
3.3386,2.62628,-0.371632,67
3.34116,2.62734,0.826203,58
3.33198,2.61918,-0.222114,78
4.31181,3.38819,1.26602,22
3.36166,2.64157,-0.0746265,100
4.4148,3.46787,1.50426,33
2.26305,1.77254,-0.770245,7
3.33792,2.6135,0.0739982,86
2.60418,2.03827,-0.763484,6
3.33746,2.6122,0.222114,78
3.11409,2.4365,-0.768579,4
3.36476,2.63167,0.373724,79
3.35671,2.62444,-0.674858,56
3.35491,2.62209,0.52282,66
3.34598,2.61417,-0.521357,63
3.36074,2.6257,0.675484,50
3.35089,2.61706,-0.371981,68
3.35495,2.61929,0.827348,60
3.34267,2.60877,-0.222218,82
4.29749,3.35274,1.25838,19
3.36928,2.62859,-0.0745916,96
4.42687,3.45244,1.50426,32
2.26922,1.76463,-0.770245,7
3.34973,2.60488,0.074068,82
2.60939,2.02843,-0.763034,7
3.34498,2.59931,0.222009,75
3.10862,2.41477,-0.765144,4
3.37707,2.62236,0.374072,79
3.36539,2.61329,-0.674858,56
3.36359,2.61095,0.52282,66
3.35777,2.60549,-0.521845,61
3.3652,2.61032,0.674546,53
3.36315,2.60779,-0.372329,66
3.37138,2.61417,0.829256,55
3.35604,2.60134,-0.222533,84
4.28702,3.32176,1.25208,19
3.37211,2.61191,-0.074452,96
4.44043,3.43815,1.50477,34
2.26589,1.75001,-0.76714,9
3.36513,2.59806,0.0742076,79
2.62108,2.02288,-0.764384,7
3.35877,2.59128,0.222323,81
3.11972,2.40685,-0.765907,4
3.37786,2.60506,0.373201,76
3.38075,2.60635,-0.67611,55
3.37583,2.60161,0.523307,67
3.36999,2.59618,-0.522332,66
3.37273,2.59735,0.674233,50
3.36231,2.58933,-0.371283,67
3.38048,2.60238,0.829256,55
3.36985,2.59326,-0.222847,86
4.29859,3.30678,1.25208,24
3.37328,2.59403,-0.0742774,99
4.43555,3.40968,1.49908,36
2.26892,1.73974,-0.766104,7
3.37101,2.58386,0.0741378,79
2.63431,2.01846,-0.766183,7
3.37097,2.58197,0.222533,81
3.1359,2.40191,-0.767815,4
3.38851,2.59446,0.373375,79
3.38199,2.58853,-0.674546,57
3.38804,2.59223,0.523794,69
3.38218,2.58681,-0.52282,69
3.38648,2.58916,0.675171,53
3.365,2.57274,-0.370586,70
3.38643,2.58818,0.828493,55
3.38047,2.5827,-0.222951,84
4.31321,3.29412,1.25298,27
3.38709,2.58588,-0.0743822,96
4.4505,3.39652,1.50012,36
2.28112,1.73649,-0.768175,7
3.37364,2.56723,0.0739982,79
2.63204,2.00217,-0.763484,6
3.38314,2.5726,0.222742,81
3.14582,2.39214,-0.768197,4
3.39913,2.58383,0.37355,78
3.38943,2.57552,-0.674233,56
3.39074,2.57558,0.52282,63
3.39435,2.57739,-0.523307,66
3.40179,2.5821,0.676423,53
3.3803,2.56579,-0.371283,63
3.38605,2.56923,0.826203,54
3.3831,2.56605,-0.222533,84
4.32312,3.27787,1.25253,27
3.40884,2.5837,-0.0746614,100
4.45617,3.37629,1.49804,36
2.29796,1.73667,-0.771798,9
3.39056,2.56147,0.0741727,78
2.64368,1.9965,-0.764834,7
3.38413,2.55476,0.222218,76
3.16042,2.38588,-0.769724,4
3.4129,2.57554,0.374072,79
3.39998,2.56486,-0.674546,54
3.39971,2.56373,0.52282,64
3.39541,2.55955,-0.522088,64
3.41078,2.57021,0.676423,53
3.40197,2.56357,-0.372678,66
3.39814,2.55975,0.826966,54
3.39842,2.55903,-0.222951,81
4.32053,3.25221,1.24848,27
3.41624,2.57059,-0.0746265,91
4.47102,3.36304,1.49908,36
2.3071,1.73096,-0.772834,9
3.40108,2.55082,0.0742076,79
2.65219,1.98843,-0.765283,7
3.39463,2.54413,0.222323,78
3.16559,2.37248,-0.76896,4
3.42187,2.56362,0.374072,79
3.41365,2.55653,-0.675484,55
3.40864,2.55185,0.52282,67
3.40591,2.54887,-0.522332,66
3.41341,2.55356,0.675171,53
3.4109,2.55168,-0.372678,67
3.41963,2.55728,0.830019,58
3.41053,2.54955,-0.223161,82
4.33029,3.23594,1.24803,27
3.41878,2.55386,-0.0744869,100
4.47809,3.34394,1.49753,36
2.29918,1.71251,-0.768175,7
3.41156,2.54013,0.0742425,89
2.65911,1.97916,-0.765283,7
3.40829,2.53584,0.222637,73
3.1644,2.35438,-0.766671,4
3.4292,2.55047,0.373898,78
3.42256,2.5446,-0.675484,55
3.42709,2.54704,0.524282,64
3.41478,2.53697,-0.522332,67
3.41596,2.53691,0.67392,53
3.40699,2.53025,-0.371283,65
3.42539,2.54299,0.829256,55
3.41941,2.53763,-0.223161,79
4.34,3.21964,1.24758,30
3.42286,2.53833,-0.0743822,99
4.48663,3.32599,1.49649,34
2.30515,1.70447,-0.768175,7
3.41237,2.52226,0.074068,79
2.67227,1.9745,-0.767083,7
3.41552,2.52274,0.222533,78
3.17734,2.34682,-0.767815,4
3.43167,2.53375,0.373201,76
3.43142,2.53263,-0.675484,55
3.43915,2.53742,0.524769,64
3.42841,2.52857,-0.523063,70
3.43274,2.53083,0.675484,50
3.41259,2.51598,-0.370935,68
3.43108,2.52869,0.828493,54
3.43146,2.52804,-0.22337,81
4.35435,3.20678,1.24848,31
3.44619,2.53704,-0.0746963,100
4.49043,3.30459,1.4939,36
2.31575,1.69985,-0.769728,9
3.41793,2.50797,0.0739982,79
2.67915,1.96516,-0.767083,6
3.43558,2.51907,0.223265,75
3.19659,2.34384,-0.770487,4
3.44371,2.52411,0.37355,76
3.43386,2.51597,-0.674233,56
3.44479,2.52305,0.524282,64
3.44523,2.52245,-0.524282,67
3.44474,2.52117,0.67611,50
3.42778,2.50876,-0.371632,65
3.43355,2.51206,0.826966,55
3.43059,2.50898,-0.222742,84
4.36709,3.19272,1.24893,27
3.44696,2.5191,-0.0745218,99
4.50818,3.29345,1.49597,33
2.32636,1.69517,-0.771281,7
3.43151,2.49955,0.0741029,78
2.67969,1.9512,-0.765283,6
3.43305,2.49884,0.222533,81
3.20793,2.33498,-0.77125,4
3.45733,2.51559,0.374072,75
3.44901,2.50862,-0.675484,55
3.44073,2.50167,0.522332,66
3.44438,2.5034,-0.52282,66
3.45352,2.50913,0.67611,50
3.44297,2.50146,-0.372329,65
3.45183,2.50698,0.829256,54
3.43933,2.49699,-0.222742,82
4.36243,3.16601,1.24443,27
3.46382,2.51292,-0.0746963,96
4.51808,3.27656,1.49546,34
2.33852,1.69156,-0.773351,7
3.4467,2.49224,0.0742425,78
2.68649,1.94184,-0.765283,7
3.43851,2.4845,0.222323,78
3.20333,2.31457,-0.768197,4
3.47094,2.507,0.374595,78
3.46736,2.5035,-0.677361,55
3.45266,2.49197,0.52282,63
3.45309,2.49137,-0.52282,64
3.46066,2.49591,0.675797,55
3.45491,2.49176,-0.372678,67
3.46374,2.49721,0.830019,54
3.45775,2.49197,-0.22337,79
4.3703,3.14848,1.24353,28
3.46446,2.49497,-0.0745218,100
4.53106,3.2619,1.49597,38
2.335,1.67663,-0.770245,7
3.457,2.48137,0.0742774,83
2.69008,1.93017,-0.764384,6
3.45322,2.47774,0.222742,78
3.2098,2.30223,-0.767815,4
3.47319,2.49023,0.373898,76
3.47287,2.48908,-0.676736,55
3.47102,2.48684,0.524282,64
3.46134,2.4799,-0.52282,64
3.4657,2.48212,0.675171,55
3.45711,2.47505,-0.371981,63
3.47882,2.48968,0.831546,55
3.46642,2.47989,-0.22337,81
4.3823,3.13511,1.24398,27
3.47109,2.48231,-0.0744869,96
4.52456,3.23449,1.49028,39
2.3374,1.66663,-0.76921,7
3.46195,2.46757,0.0742076,79
2.70599,1.92803,-0.767083,6
3.46467,2.46859,0.222951,79
3.20302,2.28132,-0.764381,4
3.47818,2.47639,0.37355,78
3.47466,2.47297,-0.675484,55
3.48248,2.47761,0.524769,67
3.47278,2.47071,-0.523307,69
3.48035,2.47519,0.676423,53
3.4588,2.45895,-0.371283,67
3.47746,2.4713,0.829256,54
3.47788,2.47069,-0.223579,81
4.39744,3.12394,1.24533,28
3.48093,2.47194,-0.0745218,99
4.53999,3.22283,1.49183,37
2.34606,1.66111,-0.770245,7
3.46685,2.45376,0.0741378,83
2.70601,1.91454,-0.765283,6
3.48631,2.46571,0.223789,78
3.23301,2.28656,-0.769724,6
3.49288,2.46944,0.374247,76
3.47962,2.45915,-0.674858,55
3.48419,2.46147,0.523794,63
3.48462,2.46087,-0.523794,64
3.49543,2.46758,0.677674,53
3.47713,2.45376,-0.372329,67
3.47922,2.45523,0.827729,58
3.48279,2.45684,-0.22337,81
4.40991,3.10969,1.24578,30
3.50098,2.46784,-0.0747661,100
4.55279,3.20807,1.49235,35
2.3553,1.65472,-0.771281,7
3.4754,2.44164,0.0741378,86
2.70948,1.90285,-0.764384,6
3.48019,2.4432,0.222847,75
3.22851,2.26567,-0.766671,5
3.50517,2.45891,0.374595,76
3.49508,2.45092,-0.67611,56
3.48626,2.44474,0.52282,64
3.48669,2.44413,-0.52282,67
3.50402,2.45537,0.677674,53
3.48567,2.4416,-0.372329,70
3.49463,2.44696,0.829256,58
3.4885,2.44177,-0.223161,79
4.40371,3.08122,1.24083,22
3.50957,2.4556,-0.0747661,96
4.56554,3.19327,1.49287,32
2.37057,1.65312,-0.774387,7
3.49088,2.43346,0.0742774,83
2.71324,1.89067,-0.763484,6
3.48869,2.43103,0.222847,73
3.24123,2.25775,-0.767815,5
3.52028,2.45122,0.375293,76
3.50199,2.43757,-0.675797,51
3.50498,2.43875,0.524282,63
3.49562,2.43133,-0.52282,66
3.4996,2.4341,0.675171,53
3.50072,2.43397,-0.373027,67
3.51282,2.44147,0.831546,58
3.50029,2.43186,-0.22337,79
4.40804,3.06138,1.23903,18
3.50498,2.43421,-0.0744869,89
4.57984,3.17952,1.4939,36
2.36362,1.63604,-0.770245,7
3.51209,2.43098,0.0745567,26
2.72911,1.88832,-0.766183,6
3.50866,2.42679,0.223579,15
3.24102,2.24084,-0.765907,4
3.49603,2.41626,0.371806,54
3.49344,2.41176,0.672355,23
4.41817,3.04675,1.23903,18
3.48053,2.39926,-0.0737888,21
4.57818,3.15474,1.48976,36
2.36903,1.62819,-0.770245,7
2.7389,1.88099,-0.767083,6
3.61261,2.48009,0.22965,1
3.25329,2.23342,-0.767052,4
3.53623,2.42493,0.526476,1
4.43681,3.03681,1.24128,16
3.5582,2.43452,-0.0752548,1
4.58917,3.13874,1.48976,36
2.37817,1.62167,-0.771281,7
3.50419,2.3895,0.0740331,1
2.73579,1.86483,-0.764384,7
3.51231,2.39324,0.222742,1
3.25821,2.21927,-0.766289,4
3.53752,2.40861,0.374421,1
3.51778,2.39158,-0.372155,1
3.49913,2.37711,-0.221695,1
4.61558,3.13439,1.28807,45
3.50712,2.38165,-0.0739982,1
4.5937,3.11836,1.48769,36
2.39982,1.62419,-0.776457,8
3.54605,2.39905,0.0747312,1
2.74583,1.85697,-0.765283,6
3.26756,2.20898,-0.766671,5
3.50463,2.36836,0.370063,6
4.63241,3.12342,1.28987,48
4.61417,3.10878,1.4908,33
2.40198,1.61407,-0.775422,7
3.53407,2.3739,0.0743124,1
2.75845,1.8522,-0.767083,7
4.60963,3.0952,0.290988,2
3.26835,2.19375,-0.765144,5
4.6309,3.10715,0.487898,6
3.94716,2.64738,-0.752763,2
4.62656,3.10189,0.683931,5
4.63316,3.10631,-0.684906,8
4.63071,3.1035,0.882916,11
4.63472,3.10502,-0.488072,18
4.62947,3.10033,1.08303,13
4.63054,3.09988,-0.292035,24
4.62817,3.09829,1.28582,39
4.63507,3.10174,-0.0973495,21
4.61964,3.09024,1.48924,35
2.39447,1.59752,-0.771281,7
4.63827,3.09334,0.0973146,38
2.76944,1.84629,-0.768433,7
4.63536,3.08906,0.29193,38
3.28089,2.1856,-0.766289,5
4.64118,3.09177,0.487898,37
3.96907,2.64304,-0.755266,5
4.64508,3.09203,0.685149,33
4.64562,3.09122,-0.685149,34
4.63329,3.08185,0.881352,26
4.62728,3.07669,-0.486155,32
4.64844,3.08959,1.08494,33
4.638,3.08148,-0.291825,42
4.6422,3.08427,1.28672,40
4.64587,3.08554,-0.0973495,30
4.62235,3.06876,1.48666,36
2.39386,1.58446,-0.76921,7
4.64124,3.07081,0.0971401,40
2.77781,1.8372,-0.768883,7
4.64165,3.06875,0.291616,38
3.27905,2.16707,-0.763999,4
4.65248,3.07474,0.487898,34
3.96554,2.61976,-0.752763,5
4.6597,3.07717,0.685637,35
4.65526,3.07308,-0.684906,36
4.64455,3.06485,0.881352,27
4.63853,3.05971,-0.486155,33
4.6499,3.06604,1.08265,31
4.65594,3.06886,-0.292244,42
4.66161,3.0726,1.28897,42
4.66215,3.07179,-0.0974542,28
4.63195,3.05073,1.48614,34
2.40934,1.58204,-0.772316,7
4.64745,3.05048,0.0970354,42
2.77638,1.82166,-0.766633,7
4.65621,3.05391,0.291825,42
3.30465,2.16745,-0.768197,4
4.66371,3.05767,0.487898,33
3.98338,2.61063,-0.754327,6
4.65434,3.0492,0.6832,33
4.67148,3.05926,-0.685637,36
4.66402,3.05321,0.882916,24
4.66418,3.05332,-0.487724,38
4.65564,3.04657,1.08151,30
4.65325,3.04384,-0.291407,42
4.66958,3.05336,1.28807,43
4.67171,3.05359,-0.0974193,33
4.64472,3.03479,1.48666,33
2.42132,1.57784,-0.774387,7
4.66142,3.03642,0.0971052,42
2.78109,1.8109,-0.766183,6
4.65847,3.03219,0.291302,44
3.31384,2.15697,-0.768579,4
4.6777,3.04354,0.488246,33
3.98916,2.59455,-0.753701,6
4.66828,3.03509,0.683687,35
4.67547,3.03861,-0.684662,34
4.67631,3.03799,0.883229,30
4.67481,3.03702,-0.487724,37
4.67283,3.03457,1.08303,31
4.66049,3.02541,-0.291197,45
4.67367,3.0328,1.28627,43
4.68402,3.03835,-0.0974542,35
4.66339,3.02382,1.48924,34
2.43979,1.57777,-0.778528,8
4.67367,3.02122,0.0971401,42
2.78739,1.80118,-0.766183,7
4.66567,3.01374,0.291093,44
3.31146,2.139,-0.766289,4
4.6883,3.02719,0.488246,34
3.99819,2.58061,-0.753701,6
4.67885,3.01878,0.683687,36
4.68104,3.01904,-0.683931,38
4.67858,3.0163,0.881665,28
4.68203,3.01852,-0.487375,37
4.68175,3.01718,1.08265,33
4.67606,3.01236,-0.291511,45
4.67931,3.0133,1.28492,40
4.68618,3.01657,-0.0972797,30
4.66579,3.00229,1.48666,36
2.42253,1.55464,-0.771281,7
4.6825,3.0038,0.0971052,43
2.80843,1.8009,-0.770232,7
4.67952,2.99959,0.291302,44
3.32551,2.13167,-0.767815,4
4.69548,3.00866,0.487898,37
4.01383,2.5709,-0.754953,6
4.6927,3.00457,0.684175,33
4.69323,3.00375,-0.684175,36
4.68409,2.99675,0.880726,28
4.68079,2.99465,-0.486155,36
4.70217,3.00717,1.08494,34
4.69328,3.00032,-0.29193,47
4.68652,2.99485,1.28402,39
4.69669,3.00019,-0.0972797,30
4.67462,2.98495,1.48614,35
2.42142,1.54202,-0.76921,6
4.69296,2.98744,0.0971052,43
2.80648,1.78586,-0.767983,6
4.69334,2.98538,0.291511,44
3.32299,2.11372,-0.765526,4
4.69587,2.98584,0.486852,37
4.02111,2.55581,-0.75464,5
4.69813,2.98498,0.683443,36
4.70368,2.98735,-0.684175,34
4.69786,2.9825,0.881352,26
4.68954,2.97722,-0.48598,38
4.69938,2.98232,1.08189,33
4.70035,2.98179,-0.291721,45
4.70353,2.98265,1.28582,37
4.70544,2.98271,-0.0972448,35
4.68011,2.96551,1.48459,37
2.43659,1.53975,-0.772316,7
4.69321,2.96464,0.0968958,43
2.81599,1.77813,-0.768883,6
4.70373,2.96898,0.291511,44
3.34695,2.11259,-0.769342,4
4.7012,2.96624,0.486329,36
4.02666,2.53965,-0.754014,5
4.70517,2.96644,0.682956,36
4.71408,2.97092,-0.684175,36
4.71492,2.9703,0.882603,27
4.70496,2.96402,-0.486503,46
4.70146,2.96067,1.07998,30
4.70566,2.96217,-0.291407,42
4.71721,2.96828,1.28672,39
4.71582,2.96627,-0.0972448,35
4.69044,2.94915,1.48459,37
2.45504,1.53945,-0.776457,8
4.70523,2.9493,0.0969307,43
2.81227,1.76208,-0.766183,5
4.70899,2.94936,0.291197,40
3.36429,2.10714,-0.771632,4
4.72504,2.95827,0.487724,36
4.04555,2.53187,-0.755891,5
4.71213,2.9479,0.682468,38
4.71769,2.95023,-0.6832,34
4.72191,2.95173,0.881978,28
4.72035,2.95074,-0.487026,40
4.71343,2.94528,1.08036,34
4.7075,2.94044,-0.290883,45
4.71432,2.94354,1.28312,39
4.72785,2.95085,-0.0972797,33
4.70234,2.93379,1.4851,34
2.46696,1.53495,-0.778528,8
4.72229,2.93708,0.0970703,43
2.82502,1.75637,-0.767983,6
4.71586,2.9308,0.290988,42
3.35995,2.08814,-0.76896,4
4.73026,2.9386,0.487201,43
4.0594,2.52086,-0.75683,6
4.72408,2.93248,0.682712,38
4.7229,2.93061,-0.682468,36
4.72212,2.92898,0.8801,28
4.73231,2.9353,-0.487201,42
4.73202,2.93398,1.08227,31
4.72283,2.92714,-0.291197,42
4.72125,2.92502,1.28222,39
4.73472,2.93222,-0.0972099,30
4.72241,2.92346,1.48821,34
2.44271,1.50806,-0.76921,7
4.72911,2.91848,0.0970005,42
2.83777,1.75059,-0.769782,6
4.72725,2.91619,0.291093,44
3.35887,2.07124,-0.767052,4
4.74049,2.92207,0.487201,37
4.06817,2.50668,-0.75683,6
4.74273,2.92117,0.683931,38
4.73428,2.91597,-0.682712,36
4.73517,2.91537,0.880726,27
4.72725,2.90937,-0.485632,40
4.74391,2.91847,1.08265,33
4.73813,2.91377,-0.291511,45
4.74088,2.91547,1.28492,39
4.7359,2.91127,-0.0970354,35
4.71726,2.89868,1.48355,36
2.46088,1.50803,-0.773351,7
4.73535,2.90069,0.0969307,42
2.85353,1.74728,-0.772482,6
4.73349,2.89842,0.290883,46
3.38414,2.07137,-0.77125,2
4.74165,2.90114,0.486329,36
4.07141,2.49008,-0.755891,5
4.75409,2.90647,0.684175,36
4.75578,2.9075,-0.684418,36
4.74144,2.89759,0.8801,28
4.73518,2.89263,-0.485457,36
4.74518,2.89761,1.08074,28
4.75117,2.90013,-0.291721,47
4.75552,2.90278,1.28627,43
4.75235,2.89971,-0.097175,35
4.72685,2.88302,1.48355,36
2.46917,1.50187,-0.774387,7
4.73298,2.8777,0.0966863,40
2.84599,1.72971,-0.768883,6
4.74358,2.88187,0.290883,44
3.3826,2.05503,-0.769342,4
4.74955,2.88437,0.486155,37
4.07795,2.47554,-0.755579,3
4.74673,2.88039,0.681737,36
4.7642,2.88985,-0.684175,36
4.75321,2.88205,0.880413,30
4.75377,2.88125,-0.486329,37
4.74805,2.87779,1.07922,30
4.7471,2.87608,-0.290883,49
4.76395,2.88515,1.28582,39
4.76587,2.88517,-0.0972448,35
4.73523,2.8655,1.48303,33
2.47796,1.4948,-0.775422,7
4.75156,2.86632,0.0968609,43
2.84867,1.71775,-0.767983,6
4.7519,2.86427,0.290779,46
3.39515,2.04566,-0.770487,4
4.77374,2.87516,0.487549,37
4.09208,2.46363,-0.756517,3
4.75675,2.8638,0.681737,38
4.76236,2.86604,-0.682468,38
4.76832,2.8685,0.881352,28
4.76891,2.86772,-0.486852,41
4.76193,2.86239,1.07998,30
4.75761,2.85866,-0.290883,47
4.76113,2.85965,1.28222,39
4.77934,2.87058,-0.0973146,35
4.75514,2.85492,1.48614,34
2.47654,1.48218,-0.773351,6
4.76718,2.85197,0.0969656,42
2.85829,1.7093,-0.768883,5
4.75844,2.84561,0.290569,48
3.38037,2.0207,-0.765526,4
4.78546,2.8595,0.487724,40
4.10404,2.45136,-0.757143,3
4.77404,2.85042,0.682712,36
4.77283,2.84857,-0.682468,40
4.77322,2.8488,0.880413,28
4.7789,2.85106,-0.486852,42
4.77695,2.84876,1.08112,33
4.76412,2.83999,-0.290674,47
4.77275,2.84401,1.28267,42
4.78074,2.84876,-0.0971401,38
4.76508,2.8383,1.48614,34
2.48169,1.47352,-0.773351,7
4.78177,2.83921,0.0970703,49
2.86059,1.69782,-0.767983,6
4.77522,2.83306,0.290988,54
3.39246,2.0119,-0.766671,4
4.78855,2.83872,0.487026,45
4.11385,2.43874,-0.757456,3
4.78176,2.83356,0.682468,43
4.78225,2.83273,-0.682468,50
4.77123,2.82507,0.878223,33
4.7751,2.82624,-0.485457,56
4.78637,2.83291,1.08112,39
4.78899,2.83333,-0.291616,60
4.78048,2.82717,1.28222,39
4.78033,2.82595,-0.0969307,59
4.76664,2.81674,1.48355,45
2.48324,1.46332,-0.772316,6
4.78304,2.81742,0.0968958,57
2.87994,1.69574,-0.771582,6
4.78852,2.8184,0.291197,66
3.40588,2.00462,-0.768197,4
4.78764,2.81676,0.48598,51
4.1019,2.41235,-0.753701,3
4.79333,2.81786,0.682712,50
4.79553,2.81803,-0.682956,40
4.78447,2.8104,0.878849,35
4.78445,2.81039,-0.485457,36
4.79285,2.8142,1.08036,49
4.79885,2.81659,-0.291616,47
4.79873,2.8154,1.28447,43
4.79879,2.81431,-0.0971052,28
4.77311,2.79813,1.48252,43
2.495,1.45855,-0.774387,7
4.78766,2.79769,0.0967911,29
2.86565,1.67388,-0.766183,6
4.79833,2.80167,0.291197,36
3.42303,1.99866,-0.770487,4
4.80432,2.80405,0.486678,28
4.12224,2.40499,-0.755891,4
4.80828,2.80411,0.683443,29
4.81048,2.80427,-0.683687,32
4.8045,2.79965,0.880726,26
4.80112,2.79768,-0.486155,35
4.80094,2.79646,1.07998,37
4.79139,2.78978,-0.290569,42
4.82368,2.80745,1.28852,88
4.81722,2.80257,-0.0972797,26
4.78619,2.78339,1.48355,36
2.49005,1.44401,-0.771281,7
4.80259,2.78396,0.0968958,36
2.87484,1.66582,-0.767083,6
4.80289,2.7819,0.290883,40
3.43339,1.98866,-0.77125,4
4.81236,2.78626,0.486503,28
4.12548,2.38761,-0.754953,3
4.80945,2.78234,0.682225,33
4.80993,2.7815,-0.682225,32
4.81937,2.78583,0.881665,26
4.80789,2.77807,-0.485806,36
4.81068,2.77969,1.07998,28
4.79764,2.77104,-0.29036,42
4.81151,2.77793,1.28267,75
4.82351,2.78374,-0.0972099,26
4.79588,2.76667,1.48355,38
2.50538,1.44065,-0.774387,7
4.80881,2.76519,0.0968259,36
2.88402,1.65772,-0.767983,6
4.80738,2.76213,0.290569,38
3.42193,1.96531,-0.767052,4
4.82599,2.77059,0.486852,34
4.13935,2.37543,-0.755891,3
4.81397,2.76257,0.681493,29
4.81445,2.76172,-0.681493,38
4.81707,2.76211,0.879475,27
4.82101,2.76325,-0.486155,36
4.82254,2.76301,1.08036,31
4.80776,2.75343,-0.29036,42
4.81659,2.75737,1.28132,67
4.82279,2.76092,-0.0970005,30
4.80718,2.75087,1.48407,35
2.50032,1.42616,-0.771281,7
4.82239,2.74953,0.0968958,36
2.89346,1.64906,-0.768883,6
4.81053,2.74054,0.290151,38
3.43559,1.95724,-0.768579,4
4.82871,2.74978,0.486155,25
4.15792,2.36683,-0.757769,3
4.83096,2.74883,0.682468,29
4.83316,2.74897,-0.682712,34
4.82544,2.74346,0.879162,26
4.82024,2.7405,-0.485109,36
4.83556,2.7481,1.08112,36
4.82429,2.74058,-0.290779,42
4.82957,2.74247,1.28222,67
4.83635,2.7452,-0.0970703,33
4.81387,2.73133,1.48303,35
2.50192,1.41552,-0.770245,7
4.81977,2.72579,0.0966514,33
2.90599,1.64279,-0.770682,6
4.82528,2.72668,0.290465,34
3.4424,1.94524,-0.768579,4
4.82787,2.72703,0.485109,30
4.16271,2.35036,-0.757143,3
4.84053,2.73195,0.682468,31
4.84619,2.73403,-0.6832,34
4.84015,2.72951,0.8801,26
4.8263,2.7217,-0.48476,35
4.83487,2.72542,1.07883,36
4.83383,2.72372,-0.290779,42
4.83912,2.72559,1.28222,67
4.84242,2.72634,-0.0970005,30
4.81833,2.71166,1.48148,36
2.51022,1.40867,-0.771281,7
4.83449,2.71188,0.0967561,38
2.90151,1.62692,-0.767983,6
4.84127,2.71457,0.290883,36
3.47486,1.94761,-0.774303,4
4.84084,2.71211,0.485457,28
4.16917,2.33485,-0.75683,3
4.83964,2.70922,0.681006,31
4.8557,2.7171,-0.6832,34
4.8509,2.71441,0.880413,26
4.84273,2.70873,-0.485457,33
4.83749,2.7047,1.07731,36
4.83633,2.70294,-0.29036,45
4.85201,2.71058,1.28312,67
4.85842,2.71417,-0.0971401,33
4.83573,2.70038,1.48407,34
2.51849,1.40178,-0.772316,9
4.83996,2.69389,0.0966863,36
2.89667,1.6116,-0.765283,6
4.84548,2.69474,0.290569,38
3.47134,1.92974,-0.772013,4
4.86072,2.701,0.486503,30
4.18034,2.32293,-0.757456,4
4.83992,2.68834,0.679787,28
4.86122,2.69906,-0.682712,32
4.8638,2.69938,0.881039,24
4.85215,2.69181,-0.485457,33
4.84644,2.68864,1.07731,36
4.84178,2.68495,-0.290151,45
4.85756,2.69259,1.28222,67
4.86611,2.69622,-0.0971052,28
4.84681,2.68442,1.48459,36
2.52313,1.39342,-0.772316,7
4.85284,2.67891,0.0967561,38
2.91592,1.60901,-0.768883,6
4.84786,2.67395,0.290151,38
3.48288,1.92107,-0.773158,4
4.86616,2.68294,0.486155,30
4.19015,2.30928,-0.757769,4
4.85797,2.67621,0.681006,31
4.86713,2.68015,-0.682225,34
4.85589,2.67286,0.87791,23
4.86501,2.67678,-0.485806,35
4.86267,2.67549,1.07883,42
4.85462,2.66995,-0.29036,42
4.86351,2.67374,1.28132,66
4.86323,2.67248,-0.0968609,35
4.85615,2.66749,1.48459,36
2.52822,1.38416,-0.772316,7
4.86216,2.66195,0.0967561,38
2.92836,1.60257,-0.770682,6
4.85541,2.65606,0.290046,42
3.47095,1.89793,-0.76896,4
4.87596,2.66509,0.486155,28
4.21072,2.30053,-0.759959,3
4.86902,2.66019,0.68125,29
4.87471,2.6622,-0.681981,30
4.86172,2.654,0.877285,23
4.86208,2.6531,-0.484586,36
4.87072,2.65671,1.07845,66
4.86613,2.6531,-0.290465,47
4.8767,2.65776,1.28222,67
4.8655,2.65166,-0.0967212,30
4.85865,2.64682,1.48252,38
2.52285,1.36979,-0.76921,7
4.86837,2.64221,0.0966863,40
2.94449,1.5974,-0.773382,5
4.87214,2.64205,0.290465,44
3.48273,1.88861,-0.770105,4
4.87298,2.64141,0.484935,30
4.20831,2.28017,-0.758081,4
4.88398,2.64516,0.681981,28
4.89317,2.64904,-0.6832,32
4.87141,2.63616,0.877285,23
4.86431,2.63232,-0.483889,38
4.88515,2.64249,1.0796,64
4.87712,2.63705,-0.290569,45
4.89109,2.6435,1.28357,70
4.88751,2.64046,-0.0969656,35
4.86832,2.629,1.48252,37
2.54122,1.36831,-0.773351,7
4.87228,2.62235,0.0965816,42
2.92946,1.57603,-0.767983,6
4.8866,2.62787,0.290779,38
3.49449,1.87923,-0.77125,4
4.88392,2.62533,0.485109,30
4.21624,2.26547,-0.758081,3
4.88444,2.6234,0.680762,28
4.89889,2.63006,-0.682712,34
4.89277,2.62568,0.879475,24
4.88049,2.61909,-0.484586,36
4.8978,2.62728,1.08036,37
4.88629,2.62001,-0.290569,45
4.90201,2.62733,1.28402,69
4.89493,2.62244,-0.0969307,35
4.88257,2.61472,1.48407,41
2.54939,1.36125,-0.774387,7
4.88493,2.60721,0.0966514,38
2.94182,1.56947,-0.769782,6
4.88165,2.60328,0.289941,40
3.50795,1.87071,-0.772776,4
4.89657,2.61013,0.485457,34
4.22412,2.25074,-0.758081,3
4.89181,2.60541,0.680518,28
4.90103,2.60921,-0.681737,32
4.90016,2.60766,0.879162,23
4.89663,2.60578,-0.485283,38
4.88961,2.60095,1.07654,42
4.88483,2.59731,-0.289941,45
4.90427,2.60655,1.28222,69
4.90582,2.60628,-0.0969656,35
4.89338,2.59857,1.48459,38
2.55413,1.35234,-0.774387,7
4.894,2.59015,0.0966514,38
2.94383,1.55736,-0.768883,6
4.89071,2.58622,0.289941,42
3.49884,1.8502,-0.769342,4
4.9127,2.59675,0.486155,33
4.24243,2.24152,-0.759959,3
4.90439,2.59017,0.681006,28
4.90484,2.58931,-0.681006,30
4.90225,2.58685,0.87791,22
4.90746,2.5896,-0.485457,32
4.91776,2.59394,1.08074,45
4.89386,2.58024,-0.289941,42
4.90644,2.58578,1.28042,67
4.91135,2.58727,-0.0968958,40
4.90413,2.58237,1.4851,39
2.55541,1.34162,-0.773351,7
4.90832,2.57584,0.0967561,38
2.94925,1.54708,-0.768883,6
4.8997,2.56913,0.289941,38
3.50702,1.83889,-0.769724,4
4.91468,2.57589,0.485457,30
4.26073,2.23219,-0.761836,3
4.91691,2.57488,0.681493,26
4.91912,2.57494,-0.681737,34
4.9095,2.5688,0.877597,24
4.90412,2.56599,-0.484237,37
4.92157,2.57403,1.0796,40
4.90992,2.56685,-0.29036,42
4.9258,2.57405,1.28312,67
4.91503,2.56733,-0.0967911,35
4.90284,2.55987,1.482,39
2.55665,1.33091,-0.772316,7
4.90309,2.5513,0.0964769,40
2.96501,1.54217,-0.771582,6
4.91927,2.55754,0.290569,38
3.51516,1.82754,-0.770105,4
4.9254,2.55964,0.485632,30
4.25097,2.2082,-0.758707,3
4.92764,2.55861,0.681737,28
4.93513,2.56141,-0.682712,36
4.92194,2.55347,0.878223,24
4.90951,2.54702,-0.483889,38
4.93575,2.55954,1.08074,33
4.92594,2.55337,-0.290779,45
4.93302,2.55594,1.28267,63
4.92574,2.55108,-0.0968259,40
4.91174,2.54274,1.482,39
2.56128,1.32198,-0.772316,7
4.91375,2.53509,0.0965118,42
2.95998,1.52645,-0.768883,5
4.9264,2.53944,0.290465,42
3.52501,1.81706,-0.770868,4
4.93254,2.54152,0.485457,30
4.25689,2.19244,-0.758394,4
4.93301,2.53958,0.68125,28
4.94404,2.54417,-0.682712,34
4.93434,2.53808,0.878849,24
4.92191,2.53169,-0.484237,40
4.93243,2.53602,1.07807,28
4.91884,2.52794,-0.289837,47
4.94365,2.5396,1.28312,58
4.93995,2.53661,-0.0969307,38
4.92231,2.52647,1.48252,38
2.57276,1.31655,-0.774387,7
4.92791,2.52065,0.0966165,42
2.96182,1.51434,-0.767983,6
4.94057,2.52495,0.290779,42
3.54531,1.81189,-0.773921,4
4.94493,2.52609,0.485806,33
4.28563,2.18835,-0.762149,4
4.93654,2.51963,0.680518,28
4.94228,2.52148,-0.68125,32
4.94317,2.52085,0.878849,26
4.93604,2.51721,-0.48476,35
4.94825,2.52235,1.0796,28
4.92407,2.50894,-0.289627,45
4.95074,2.52145,1.28267,58
4.9559,2.52298,-0.0970703,35
4.93454,2.51102,1.48355,38
2.58423,1.31106,-0.776457,8
4.93668,2.50344,0.0966165,42
2.97057,1.50575,-0.768883,6
4.93688,2.50137,0.290046,44
3.53586,1.79151,-0.770487,4
4.95372,2.50882,0.485806,30
4.28796,2.1707,-0.76121,3
4.9453,2.50239,0.680518,28
4.95814,2.5078,-0.682225,34
4.94136,2.49823,0.876972,27
4.94658,2.50086,-0.484935,37
4.96053,2.50683,1.08036,27
4.93993,2.49534,-0.290046,47
4.9543,2.50151,1.28132,57
4.95576,2.50116,-0.0968958,35
4.95017,2.49726,1.48562,38
2.57844,1.29682,-0.773351,6
4.95075,2.48888,0.0967212,43
2.97232,1.49362,-0.767983,6
4.94915,2.48592,0.290255,44
3.55612,1.78621,-0.77354,4
4.95532,2.48793,0.485109,30
4.29198,2.15395,-0.760584,3
4.9611,2.48867,0.681493,31
4.96509,2.48958,-0.681981,32
4.95005,2.48096,0.876972,24
4.94993,2.4809,-0.484412,36
4.97276,2.49126,1.08112,28
4.95576,2.48166,-0.290465,47
4.96649,2.48595,1.28222,61
4.96267,2.48295,-0.0968609,40
4.95022,2.47565,1.48303,40
2.58295,1.28781,-0.773351,6
4.95045,2.46713,0.0965467,42
2.98798,1.48845,-0.770682,6
4.95915,2.47038,0.29036,42
3.55882,1.77204,-0.772776,4
4.96754,2.4724,0.485457,30
4.2977,2.13807,-0.760272,3
4.97509,2.47399,0.682225,33
4.97687,2.47487,-0.682468,30
4.96179,2.46629,0.877597,26
4.95499,2.46184,-0.484063,36
4.97791,2.47214,1.08036,27
4.96797,2.46612,-0.290674,47
4.97994,2.47206,1.28357,58
4.96729,2.46471,-0.0967911,40
4.95321,2.45664,1.48148,36
2.5872,1.27924,-0.773351,7
4.95502,2.44893,0.0964769,40
2.9929,1.47854,-0.770682,5
4.96732,2.45392,0.29036,40
3.5682,1.76196,-0.77354,4
4.97571,2.45591,0.485457,30
4.31008,2.12643,-0.76121,3
4.97437,2.45309,0.681006,31
4.98683,2.45923,-0.682712,28
4.98057,2.45507,0.879475,27
4.97028,2.44892,-0.48476,35
4.97023,2.44781,1.07693,33
4.96895,2.44611,-0.290255,47
4.99335,2.45812,1.28492,61
4.98261,2.45175,-0.0969307,40
4.96827,2.44361,1.48355,36
2.59837,1.27405,-0.775422,7
4.9703,2.436,0.0966165,42
2.99079,1.46517,-0.768883,5
4.97406,2.43569,0.290255,42
3.56551,1.74518,-0.771632,4
4.98383,2.4394,0.485457,30
4.32066,2.11386,-0.761836,3
4.97891,2.43483,0.680518,33
4.99182,2.44007,-0.682225,34
4.99266,2.4394,0.8801,27
4.98238,2.4333,-0.485109,33
4.98756,2.43476,1.07883,28
4.97028,2.42524,-0.289837,45
4.9914,2.43555,1.28222,58
4.99294,2.43522,-0.0969656,35
4.98197,2.4288,1.4851,39
2.61692,1.27127,-0.779563,8
4.98459,2.42039,0.0967212,42
2.99964,1.4559,-0.769782,5
4.98655,2.41919,0.290465,42
3.57365,1.73296,-0.772013,5
5.0017,2.42546,0.486329,30
4.33371,2.1006,-0.762775,4
4.98959,2.41744,0.680762,28
5.00073,2.42175,-0.682225,34
5.00156,2.42108,0.8801,28
4.99485,2.41676,-0.485457,36
5.00706,2.42158,1.08112,27
4.98273,2.40875,-0.290046,47
4.99502,2.41469,1.28087,58
4.99463,2.41342,-0.0968259,35
4.99258,2.41136,1.48562,36
2.60068,1.25162,-0.773351,7
4.99883,2.4047,0.0968259,42
3.01199,1.44828,-0.771582,5
4.98998,2.3983,0.290151,42
3.57083,1.71622,-0.770105,4
5.00158,2.4028,0.485457,28
4.34494,2.08641,-0.7634,4
5.00915,2.40428,0.682225,28
5.01136,2.40427,-0.682468,32
5.00684,2.40103,0.879475,27
4.99427,2.395,-0.484586,40
5.01725,2.40494,1.08151,31
4.99831,2.39479,-0.290465,45
5.01263,2.40057,1.28312,57
5.00705,2.39683,-0.0968958,35
4.9979,2.39138,1.48459,38
2.61549,1.24753,-0.776457,8
4.99637,2.38208,0.0966165,40
3.02054,1.43943,-0.772482,5
5.00914,2.38602,0.290779,38
3.60516,1.71726,-0.776211,4
5.00994,2.38533,0.485457,34
4.34506,2.06784,-0.762149,4
5.02289,2.38934,0.682956,33
5.0251,2.38932,-0.6832,28
5.01876,2.38523,0.8801,27
4.999,2.37584,-0.484237,37
5.0203,2.38489,1.08036,28
5.01025,2.37904,-0.290674,47
5.02978,2.38724,1.28537,63
5.0208,2.38191,-0.0970005,35
5.00796,2.37474,1.4851,39
2.61983,1.23839,-0.776457,8
5.00103,2.36291,0.0965467,40
3.0185,1.42555,-0.770682,5
5.02064,2.3711,0.290988,42
3.60758,1.70299,-0.775448,4
5.02364,2.37037,0.48598,30
4.36655,2.0594,-0.764652,5
5.02581,2.36926,0.682225,28
5.04239,2.37599,-0.684418,32
5.03022,2.37026,0.880726,27
5.01808,2.36347,-0.485283,37
5.02326,2.36484,1.07922,28
5.00949,2.35729,-0.290151,45
5.03456,2.36801,1.28447,60
5.03049,2.36609,-0.0970354,35
5.01232,2.35648,1.48407,41
2.62764,1.23087,-0.777492,8
5.01609,2.34971,0.0966863,38
3.01262,1.41057,-0.767983,5
5.02346,2.35102,0.290674,42
3.60994,1.68872,-0.774685,4
5.0391,2.3562,0.486678,31
4.36083,2.03905,-0.762462,3
5.02465,2.34837,0.681006,31
5.04305,2.3559,-0.683443,28
5.04204,2.35436,0.881352,27
5.02991,2.34763,-0.485632,38
5.03641,2.35066,1.08036,31
5.01728,2.34066,-0.290151,42
5.04062,2.35048,1.28402,61
5.04415,2.35106,-0.0971401,35
5.03102,2.34387,1.48717,39
2.6282,1.22053,-0.776457,8
5.03151,2.33555,0.0968259,38
3.02106,1.40169,-0.768883,6
5.0262,2.33095,0.29036,40
3.61196,1.67508,-0.773921,4
5.0505,2.34115,0.487026,31
4.37867,2.0288,-0.764339,4
5.04363,2.33582,0.682468,35
5.04043,2.33328,-0.681981,32
5.03947,2.33177,0.879475,27
5.04169,2.33172,-0.48598,38
5.04815,2.33471,1.08112,28
5.03267,2.32648,-0.290569,45
5.04879,2.33287,1.28402,58
5.04507,2.33008,-0.0970005,35
5.03917,2.32629,1.48717,40
2.63616,1.2125,-0.777492,8
5.04327,2.31964,0.0968958,38
3.03656,1.39602,-0.771582,6
5.03793,2.31506,0.290569,42
3.61808,1.66184,-0.773921,4
5.04637,2.31681,0.485806,28
4.38249,2.01109,-0.763713,3
5.06257,2.32317,0.683931,31
5.06298,2.32229,-0.683931,36
5.05297,2.31663,0.880413,30
5.04618,2.31245,-0.485632,40
5.0656,2.32028,1.08303,30
5.04661,2.31052,-0.290883,45
5.06262,2.31678,1.28537,58
5.05317,2.31246,-0.0970005,35
5.04726,2.30869,1.48717,40
2.62983,1.19848,-0.774387,7
5.039,2.29534,0.0966514,36
3.04875,1.38811,-0.773382,6
5.05547,2.30072,0.291093,34
3.62386,1.6492,-0.773921,4
5.05987,2.30165,0.486329,27
4.39487,1.99823,-0.764652,4
5.07286,2.30542,0.684175,33
5.07326,2.30454,-0.684175,34
5.06682,2.30055,0.881352,27
5.04696,2.29153,-0.484935,37
5.06473,2.29853,1.08112,28
5.0601,2.29536,-0.291197,42
5.07245,2.2999,1.28582,61
5.06707,2.29639,-0.0971052,30
5.04689,2.28618,1.48459,37
2.64456,1.19407,-0.777492,8
5.05427,2.28103,0.0967911,36
3.04647,1.37425,-0.771582,6
5.06529,2.28388,0.291197,38
3.62601,1.63492,-0.773158,4
5.06787,2.28398,0.486329,27
4.39462,1.97963,-0.7634,5
5.06821,2.282,0.682468,31
