# .PCD v.7 - Point Cloud Data file format
VERSION .7
FIELDS x y z intensity normals observationDirections
SIZE 4 4 4 4 4 4
TYPE F F F F F F
COUNT 1 1 1 1 3 3
WIDTH 551
HEIGHT 1
POINTS 551
DATA ascii
6.29134 0.0164686 0.329717 16 -0.0527226 -7.57576e-05 0.998609 -6.29134 -0.0164686 -0.329717
4.01288 0.0105044 -0.780027 5 -0.234535 -0.00123524 -0.972107 -4.01288 -0.0105044 0.780027
6.31187 0.0154238 0.552219 15 -0.0880977 -0.00135369 0.996111 -6.31187 -0.0154238 -0.552219
6.2828 0.0131568 0.771433 15 -0.122066 -0.000187338 0.992522 -6.2828 -0.0131568 -0.771433
6.2709 0.0120404 -0.769971 6 -0.122033 0.000308055 -0.992526 -6.2709 -0.0120404 0.769971
6.31527 0.0110235 1.00024 15 0.15584 -0.000199932 -0.987782 -6.31527 -0.0110235 -1.00024
6.30204 0.00989753 1.22499 17 0.182668 -0.00670109 -0.983152 -6.30204 -0.00989753 -1.22499
6.29336 0.00878856 -0.329821 15 0.0519743 0.00024075 0.998648 -6.29336 -0.00878856 0.329821
6.29443 0.00769153 1.45318 16 -0.93221 -0.352854 -0.080492 -6.29443 -0.00769153 -1.45318
6.31304 0.00660949 -0.110194 13 0.0172909 -8.9547e-05 0.999851 -6.31304 -0.00660949 0.110194
2.94028 -0.00102635 -0.787845 7 -0.26278 -0.000893356 -0.964855 -2.94028 0.00102635 0.787845
3.38106 -0.00236043 -0.78058 5 -0.273949 -0.00227058 -0.961741 -3.38106 0.00236043 0.78058
6.29136 -0.00549025 0.329717 18 -0.0527226 -7.57576e-05 0.998609 -6.29136 0.00549025 -0.329717
4.01289 -0.00350191 -0.780027 4 -0.234535 -0.00123524 -0.972107 -4.01289 0.00350191 0.780027
6.31587 -0.00661397 0.552567 15 -0.937801 -0.343278 -0.0518604 -6.31587 0.00661397 -0.552567
4.85942 -0.00593691 -0.769658 4 -0.158455 -0.000329045 -0.987366 -4.85942 0.00593691 0.769658
6.3106 -0.00881127 0.774845 15 -0.122066 -0.000187338 0.992522 -6.3106 0.00881127 -0.774845
6.31387 -0.0110198 -0.552393 17 0.0862139 -0.000584134 0.996276 -6.31387 0.0110198 0.552393
6.31774 -0.0121292 1.22805 16 0.182668 -0.00670109 -0.983152 -6.31774 0.0121292 -1.22805
6.31332 -0.0132226 -0.330868 15 -0.875844 -0.481964 0.0246427 -6.31332 0.0132226 0.330868
2.94412 -0.0113047 -0.78888 7 -0.26278 -0.000893356 -0.964855 -2.94412 0.0113047 0.78888
6.30728 -0.0275209 0.330554 18 -0.0527226 -7.57576e-05 0.998609 -6.30728 0.0275209 -0.330554
6.3178 -0.0286695 0.552742 15 -0.937801 -0.343278 -0.0518604 -6.3178 0.0286695 -0.552742
4.86135 -0.0229087 -0.769971 3 -0.158455 -0.000329045 -0.987366 -4.86135 0.0229087 0.769971
6.28671 -0.0318202 -0.77192 6 -0.122033 0.000308055 -0.992526 -6.28671 0.0318202 0.77192
6.31519 -0.0330666 1.00024 13 0.15584 -0.000199932 -0.987782 -6.31519 0.0330666 -1.00024
6.32522 -0.0353271 -0.331496 15 -0.875844 -0.481964 0.0246427 -6.32522 0.0353271 0.331496
6.30931 -0.0385419 1.69061 12 0.256841 -0.00185458 -0.966452 -6.30931 0.0385419 -1.69061
3.3985 -0.0260991 -0.784629 5 0.220216 -0.00720403 0.975425 -3.3985 0.0260991 0.784629
6.32313 -0.0496627 0.331391 18 -0.0527226 -7.57576e-05 0.998609 -6.32313 0.0496627 -0.331391
6.33161 -0.0508345 0.553962 15 -0.937801 -0.343278 -0.0518604 -6.33161 0.0508345 -0.553962
6.31038 -0.0539684 -0.774845 6 -0.122033 0.000308055 -0.992526 -6.31038 0.0539684 0.774845
6.3256 -0.0552026 -0.553439 18 -0.699635 -0.711779 -0.0622986 -6.3256 0.0552026 0.553439
6.34302 -0.0564619 1.23301 15 -0.93221 -0.352854 -0.080492 -6.34302 0.0564619 -1.23301
6.34475 -0.0597996 -0.110753 11 -0.778865 -0.620554 -0.091008 -6.34475 0.0597996 0.110753
3.38475 -0.0378096 -0.78148 5 -0.273949 -0.00227058 -0.961741 -3.38475 0.0378096 0.78148
6.33889 -0.0719155 0.332229 16 0.0520017 -0.00125172 -0.998646 -6.33889 0.0719155 -0.332229
4.01852 -0.0455907 -0.781172 4 0.150977 -0.00288481 0.988533 -4.01852 0.0455907 0.781172
6.35729 -0.073234 0.556228 13 0.0863406 -0.00176158 -0.996264 -6.35729 0.073234 -0.556228
6.35431 -0.0776364 1.0065 13 0.155471 -0.00267934 -0.987837 -6.35431 0.0776364 -1.0065
6.34479 -0.0797352 -0.332543 15 -0.927815 -0.32739 0.178813 -6.34479 0.0797352 0.332543
6.35238 -0.0809394 1.46668 15 -0.943486 -0.318299 -0.0923001 -6.35238 0.0809394 -1.46668
6.3645 -0.0822049 -0.111102 13 -0.778865 -0.620554 -0.091008 -6.3645 0.0822049 0.111102
6.34437 -0.0919124 0.110753 14 -0.778865 -0.620554 -0.091008 -6.34437 0.0919124 -0.110753
3.3807 -0.0495672 -0.78058 5 0.154101 -0.00840511 0.988019 -3.3807 0.0495672 0.78058
6.3426 -0.0941012 0.332438 18 0.0520017 -0.00125172 -0.998646 -6.3426 0.0941012 -0.332438
4.86479 -0.0738745 -0.770596 4 0.155944 -0.00209554 0.987764 -4.86479 0.0738745 0.770596
6.36147 -0.0977129 0.781183 15 -0.931234 -0.347023 -0.111253 -6.36147 0.0977129 -0.781183
6.29794 -0.0978364 -0.773383 4 -0.123705 0.00209562 -0.992317 -6.29794 0.0978364 0.773383
6.3649 -0.0999878 -0.556925 16 -0.855958 -0.311938 0.412348 -6.3649 0.0999878 0.556925
6.34912 -0.105282 1.70148 13 -0.862362 -0.504792 -0.0389524 -6.34912 0.105282 -1.70148
6.36 -0.114345 0.111032 14 0.0171365 -0.000554699 -0.999853 -6.36 0.114345 -0.111032
3.39415 -0.0616154 -0.783729 5 -0.0134846 -0.00904327 0.999868 -3.39415 0.0616154 0.783729
4.02596 -0.0737878 -0.782699 4 0.150977 -0.00288481 0.988533 -4.02596 0.0737878 0.782699
4.8566 -0.0907077 -0.769345 3 0.155944 -0.00209554 0.987764 -4.8566 0.0907077 0.769345
6.37697 -0.120217 0.783132 15 -0.123284 0.00196826 0.992369 -6.37697 0.120217 -0.783132
6.27176 -0.119329 -0.770214 2 -0.855958 -0.311938 0.412348 -6.27176 0.119329 0.770214
6.36335 -0.125516 1.46938 15 -0.862362 -0.504792 -0.0389524 -6.36335 0.125516 -1.46938
6.36417 -0.127754 1.70562 13 -0.862362 -0.504792 -0.0389524 -6.36417 0.127754 -1.70562
3.39976 -0.0735893 -0.785079 5 0.220216 -0.00720403 0.975425 -3.39976 0.0735893 0.785079
4.00212 -0.0873266 -0.778119 4 0.170924 -0.000925692 0.985284 -4.00212 0.0873266 0.778119
6.38008 -0.140328 0.55832 13 0.0863406 -0.00176158 -0.996264 -6.38008 0.140328 -0.55832
6.38445 -0.142654 0.784107 15 -0.123284 0.00196826 0.992369 -6.38445 0.142654 -0.784107
6.3729 -0.144621 1.00963 12 0.156109 -0.00442537 -0.98773 -6.3729 0.144621 -1.00963
6.39069 -0.146141 1.24255 16 -0.191182 0.00304184 0.98155 -6.39069 0.146141 -1.24255
6.39952 -0.14746 -0.335474 14 -0.699635 -0.711779 -0.0622986 -6.39952 0.14746 0.335474
6.3882 -0.148315 1.47523 13 -0.862362 -0.504792 -0.0389524 -6.3882 0.148315 -1.47523
6.39528 -0.149596 -0.11166 13 0.0169864 -0.000549271 0.999856 -6.39528 0.149596 0.11166
2.94324 -0.0729592 -0.78888 7 0.25194 -0.00478596 0.967731 -2.94324 0.0729592 0.78888
6.38304 -0.159342 0.111451 26 0.0171365 -0.000554699 -0.999853 -6.38304 0.159342 -0.111451
6.38519 -0.161626 0.334741 28 0.0520017 -0.00125172 -0.998646 -6.38519 0.161626 -0.334741
6.31046 -0.164143 -0.775089 6 -0.123705 0.00209562 -0.992317 -6.31046 0.164143 0.775089
6.39803 -0.167538 1.0137 20 0.156109 -0.00442537 -0.98773 -6.39803 0.167538 -1.0137
6.40732 -0.167782 -0.56076 67 -0.521369 0.851179 0.0605721 -6.40732 0.167782 0.56076
6.40191 -0.168758 1.24484 24 -0.943486 -0.318299 -0.0923001 -6.40191 0.168758 -1.24484
6.4227 -0.172671 -0.112149 63 -0.927815 -0.32739 0.178813 -6.4227 0.172671 0.112149
2.94297 -0.0832326 -0.78888 7 0.25194 -0.00478596 0.967731 -2.94297 0.0832326 0.78888
3.39137 -0.097099 -0.78328 5 -0.273949 -0.00227058 -0.961741 -3.39137 0.097099 0.78328
4.00142 -0.115264 -0.778119 4 0.184626 -0.00889372 0.982769 -4.00142 0.115264 0.778119
4.84946 -0.141387 -0.768406 4 -0.99869 -0.0479994 0.0177499 -4.84946 0.141387 0.768406
6.421 -0.188327 0.788738 61 -0.123284 0.00196826 0.992369 -6.421 0.188327 -0.788738
6.42702 -0.19075 1.01839 58 0.156109 -0.00442537 -0.98773 -6.42702 0.19075 -1.01839
6.39076 -0.189673 -0.559366 15 -0.521369 0.851179 0.0605721 -6.39076 0.189673 0.559366
6.4111 -0.191397 1.24675 56 -0.943486 -0.318299 -0.0923001 -6.4111 0.191397 -1.24675
6.38372 -0.19504 1.71131 27 0.257756 -0.00751953 -0.966181 -6.38372 0.19504 -1.71131
2.95424 -0.093873 -0.791986 7 -0.281965 0.00286166 -0.959421 -2.95424 0.093873 0.791986
3.37932 -0.108561 -0.78058 5 0.154101 -0.00840511 0.988019 -3.37932 0.108561 0.78058
6.36394 -0.205554 0.333694 14 0.0520017 -0.00125172 -0.998646 -6.36394 0.205554 -0.333694
4.0265 -0.130055 -0.78308 4 0.150977 -0.00288481 0.988533 -4.0265 0.130055 0.78308
6.37467 -0.209242 0.783132 12 -0.411543 0.91139 0.000409123 -6.37467 0.209242 -0.783132
6.28138 -0.207277 -0.771677 6 0.120403 -0.00332305 0.992719 -6.28138 0.207277 0.771677
6.37696 -0.211546 1.01057 10 0.156109 -0.00442537 -0.98773 -6.37696 0.211546 -1.01057
6.37703 -0.212662 1.24026 13 0.190413 -0.00673583 -0.981681 -6.37703 0.212662 -1.24026
6.32776 -0.212125 -0.33181 11 0.0521675 -0.00181066 0.998637 -6.32776 0.212125 0.33181
6.3824 -0.215072 1.47433 11 -0.363285 0.931603 0.0118363 -6.3824 0.215072 -1.47433
2.94617 -0.103912 -0.789916 8 -0.26438 0.0123808 -0.964339 -2.94617 0.103912 0.789916
6.31907 -0.223979 0.110369 10 0.017346 -0.000486341 -0.999849 -6.31907 0.223979 -0.110369
3.3984 -0.12105 -0.785079 6 0.220216 -0.00720403 0.975425 -3.3984 0.12105 0.785079
6.29732 -0.22541 0.33024 14 0.0519579 -0.00170773 -0.998648 -6.29732 0.22541 -0.33024
6.33569 -0.22789 0.554659 10 0.0869305 -0.00284436 -0.99621 -6.33569 0.22789 -0.554659
4.86218 -0.175739 -0.770596 3 -0.159475 0.00412217 -0.987193 -4.86218 0.175739 0.770596
6.26475 -0.228623 -0.769727 12 0.120403 -0.00332305 0.992719 -6.26475 0.228623 0.769727
6.32683 -0.231994 1.00275 10 -0.411543 0.91139 0.000409123 -6.32683 0.231994 -1.00275
6.2957 -0.230853 -0.551173 10 -0.497788 0.866741 0.031091 -6.2957 0.230853 0.551173
6.33309 -0.233331 1.23186 12 0.190413 -0.00673583 -0.981681 -6.33309 0.233331 -1.23186
6.32124 -0.235104 1.46038 12 -0.227612 0.014535 0.973643 -6.32124 0.235104 -1.46038
6.32622 -0.2375 1.6963 11 0.257756 -0.00751953 -0.966181 -6.32622 0.2375 -1.6963
6.26855 -0.246292 0.328775 12 0.0519579 -0.00170773 -0.998648 -6.26855 0.246292 -0.328775
4.8714 -0.193101 -0.772161 4 -0.159475 0.00412217 -0.987193 -4.8714 0.193101 0.772161
6.28578 -0.250265 0.772408 12 -0.418818 0.908068 0.00205404 -6.28578 0.250265 -0.772408
6.24805 -0.249855 -0.767777 14 0.120403 -0.00332305 0.992719 -6.24805 0.249855 0.767777
6.25504 -0.251229 -0.547687 10 -0.497788 0.866741 0.031091 -6.25504 0.251229 0.547687
6.30085 -0.25417 1.22576 12 0.190413 -0.00673583 -0.981681 -6.30085 0.25417 -1.22576
6.28144 -0.255583 1.45138 11 -0.227612 0.014535 0.973643 -6.28144 0.255583 -1.45138
6.23585 -0.254818 -0.108938 7 -0.017493 0.000819508 -0.999847 -6.23585 0.254818 0.108938
6.2771 -0.257601 1.68336 9 -0.363285 0.931603 0.0118363 -6.2771 0.257601 -1.68336
2.9338 -0.123988 -0.78681 7 -0.370162 0.0112982 -0.928899 -2.9338 0.123988 0.78681
6.23744 -0.264698 0.108973 10 0.017346 -0.000486341 -0.999849 -6.23744 0.264698 -0.108973
6.22247 -0.267327 0.544898 10 0.0869305 -0.00284436 -0.99621 -6.22247 0.267327 -0.544898
4.85294 -0.209338 -0.769345 4 0.156087 -0.0078861 0.987712 -4.85294 0.209338 0.769345
6.23822 -0.272367 0.988979 10 -0.411543 0.91139 0.000409123 -6.23822 0.272367 -0.988979
6.24936 -0.276131 1.44419 11 -0.227612 0.014535 0.973643 -6.24936 0.276131 -1.44419
6.21633 -0.276846 1.66731 11 -0.363285 0.931603 0.0118363 -6.21633 0.276846 -1.66731
6.21481 -0.287648 0.326053 12 0.0519579 -0.00170773 -0.998648 -6.21481 0.287648 -0.326053
4.01645 -0.185898 -0.781554 4 0.185357 -0.0101284 0.982619 -4.01645 0.185898 0.781554
6.19658 -0.291139 -0.761683 18 -0.985141 -0.000430252 0.171747 -6.19658 0.291139 0.761683
6.21356 -0.293024 0.985224 10 -0.999729 0.0201087 -0.0117362 -6.21356 0.293024 -0.985224
6.22111 -0.296645 1.43789 11 -0.227612 0.014535 0.973643 -6.22111 0.296645 -1.43789
6.18598 -0.296052 -0.1081 7 -0.994202 0.0589853 -0.0899044 -6.18598 0.296052 0.1081
6.14356 -0.303695 0.107367 10 -0.994202 0.0589853 -0.0899044 -6.14356 0.303695 -0.107367
6.16473 -0.307977 0.540017 9 -0.99441 0.064577 -0.0835421 -6.16473 0.307977 -0.540017
4.85333 -0.243312 -0.769658 4 0.156087 -0.0078861 0.987712 -4.85333 0.243312 0.769658
6.14001 -0.309965 -0.754859 19 -0.985141 -0.000430252 0.171747 -6.14001 0.309965 0.754859
6.16909 -0.312513 0.978341 10 -0.999729 0.0201087 -0.0117362 -6.16909 0.312513 -0.978341
6.14064 -0.311071 -0.537925 11 -0.384724 0.923017 0.00516507 -6.14064 0.311071 0.537925
6.16647 -0.313459 1.20019 11 -0.996189 0.0664283 -0.0565138 -6.16647 0.313459 -1.20019
6.16165 -0.31537 1.42439 11 -0.436309 0.899753 0.00890118 -6.16165 0.31537 -1.42439
6.15695 -0.316207 -0.107612 7 -0.483117 0.87528 0.0219531 -6.15695 0.316207 0.107612
6.1583 -0.317354 1.6523 12 -0.436309 0.899753 0.00890118 -6.1583 0.317354 -1.6523
6.1185 -0.32387 0.106948 10 -0.522122 0.852866 -0.00297168 -6.1185 0.32387 -0.106948
3.3802 -0.179515 -0.78148 6 0.154101 -0.00840511 0.988019 -3.3802 0.179515 0.78148
4.01113 -0.213724 -0.78079 4 0.184626 -0.00889372 0.982769 -4.01113 0.213724 0.78079
6.10321 -0.32947 -0.750471 19 -0.524774 0.850983 -0.0209716 -6.10321 0.32947 0.750471
6.12851 -0.331908 0.972084 10 -0.493595 0.869679 -0.00476593 -6.12851 0.331908 -0.972084
6.09973 -0.330349 -0.534439 11 -0.524774 0.850983 -0.0209716 -6.09973 0.330349 0.534439
6.12822 -0.337256 1.64454 11 -0.436309 0.899753 0.00890118 -6.12822 0.337256 -1.64454
6.08938 -0.343648 0.10646 10 -0.522122 0.852866 -0.00297168 -6.08938 0.343648 -0.10646
3.40095 -0.192525 -0.786429 7 0.220216 -0.00720403 0.975425 -3.40095 0.192525 0.786429
6.09082 -0.346929 0.533742 10 -0.421498 0.90668 0.0164661 -6.09082 0.346929 -0.533742
6.09614 -0.349366 0.74974 10 -0.493595 0.869679 -0.00476593 -6.09614 0.349366 -0.74974
6.07824 -0.349405 -0.747547 19 -0.524774 0.850983 -0.0209716 -6.07824 0.349405 0.747547
6.10925 -0.353327 1.1895 11 -0.528423 0.848903 -0.0114884 -6.10925 0.353327 -1.1895
6.06945 -0.352088 -0.318621 11 -0.483117 0.87528 0.0219531 -6.06945 0.352088 0.318621
6.08072 -0.355936 1.63211 11 -0.436309 0.899753 0.00890118 -6.08072 0.355936 -1.63211
2.93504 -0.175402 -0.787845 8 -0.370162 0.0112982 -0.928899 -2.93504 0.175402 0.787845
6.05222 -0.362748 0.105831 10 -0.406063 0.913653 0.0187436 -6.05222 0.362748 -0.105831
3.3847 -0.20346 -0.78283 7 -0.00596558 -0.0251569 0.999666 -3.3847 0.20346 0.78283
6.0507 -0.364777 0.317679 12 -0.522122 0.852866 -0.00297168 -6.0507 0.364777 -0.317679
4.01542 -0.242076 -0.781935 4 0.185357 -0.0101284 0.982619 -4.01542 0.242076 0.781935
6.0498 -0.365782 0.530255 10 -0.421498 0.90668 0.0164661 -6.0498 0.365782 -0.530255
6.05519 -0.369291 -0.744866 14 -0.392677 0.916767 -0.0730955 -6.05519 0.369291 0.744866
6.05507 -0.370344 0.960821 11 -0.493595 0.869679 -0.00476593 -6.05507 0.370344 -0.960821
6.06487 -0.372006 1.18111 11 -0.312048 0.946811 0.0785808 -6.06487 0.372006 -1.18111
6.07631 -0.374837 1.40549 12 -0.528423 0.848903 -0.0114884 -6.07631 0.374837 -1.40549
6.02157 -0.372515 -0.105308 7 -0.406063 0.913653 0.0187436 -6.02157 0.372515 0.105308
2.93827 -0.18589 -0.78888 8 0.226673 -0.0224259 0.973713 -2.93827 0.18589 0.78888
6.011 -0.38134 0.105133 8 -0.613314 0.789208 -0.0315793 -6.011 0.38134 -0.105133
6.03743 -0.385132 0.317051 12 -0.522122 0.852866 -0.00297168 -6.03743 0.385132 -0.317051
6.00872 -0.384354 0.526769 10 -0.546146 0.83769 -0.000992177 -6.00872 0.384354 -0.526769
6.02217 -0.388381 -0.740966 14 -0.392677 0.916767 -0.0730955 -6.02217 0.388381 0.740966
6.0005 -0.388035 -0.526072 11 -0.483117 0.87528 0.0219531 -6.0005 0.388035 0.526072
5.98025 -0.40245 0.31412 12 -0.522122 0.852866 -0.00297168 -5.98025 0.40245 -0.31412
4.02538 -0.270894 -0.784225 4 0.187544 -0.0164274 0.982119 -4.02538 0.270894 0.784225
5.98746 -0.403985 0.525026 10 -0.546146 0.83769 -0.000992177 -5.98746 0.403985 -0.525026
4.85229 -0.328243 -0.770283 4 -0.158147 0.0106828 -0.987358 -4.85229 0.328243 0.770283
5.97728 -0.405394 0.735603 10 -0.546146 0.83769 -0.000992177 -5.97728 0.405394 -0.735603
5.96928 -0.405898 -0.734628 12 -0.392677 0.916767 -0.0730955 -5.96928 0.405898 0.734628
5.98927 -0.408307 0.950809 10 -0.493595 0.869679 -0.00476593 -5.98927 0.408307 -0.950809
5.98574 -0.409116 1.16622 12 -0.558507 0.829392 -0.0133969 -5.98574 0.409116 -1.16622
5.94588 -0.407434 -0.312341 11 -0.0527411 0.00455752 -0.998598 -5.94588 0.407434 0.312341
5.99578 -0.411906 1.3875 11 -0.312048 0.946811 0.0785808 -5.99578 0.411906 -1.3875
5.98291 -0.412071 -0.10468 7 -0.613314 0.789208 -0.0315793 -5.98291 0.412071 0.10468
5.94436 -0.418798 0.104016 10 -0.485398 0.87398 -0.0233931 -5.94436 0.418798 -0.104016
3.37655 -0.23848 -0.78148 6 0.154101 -0.00840511 0.988019 -3.37655 0.23848 0.78148
5.92427 -0.423618 -0.729266 12 -0.403205 0.915106 -0.00272768 -5.92427 0.423618 0.729266
5.93405 -0.425358 -0.520494 11 -0.403205 0.915106 -0.00272768 -5.93405 0.425358 0.520494
5.95155 -0.429745 1.3776 11 -0.525485 0.850484 0.0233148 -5.95155 0.429745 -1.3776
5.91762 -0.428333 -0.103563 7 -0.48976 0.871797 0.0102074 -5.91762 0.428333 0.103563
2.93616 -0.216649 -0.78888 8 -0.370162 0.0112982 -0.928899 -2.93616 0.216649 0.78888
5.91893 -0.437775 0.103597 10 -0.485398 0.87398 -0.0233931 -5.91893 0.437775 -0.103597
3.38736 -0.25113 -0.784179 6 0.180609 -0.0231364 0.983283 -3.38736 0.25113 0.784179
4.00577 -0.29768 -0.78079 4 0.187229 -0.0160215 0.982186 -4.00577 0.29768 0.78079
5.90304 -0.441779 -0.726829 14 -0.403205 0.915106 -0.00272768 -5.90304 0.441779 0.726829
5.90756 -0.443155 0.938294 12 -0.461406 0.88685 -0.0245282 -5.90756 0.443155 -0.938294
5.92988 -0.446911 1.15592 9 -0.558507 0.829392 -0.0133969 -5.92988 0.446911 -1.15592
5.89111 -0.445023 -0.30962 9 -0.0527411 0.00455752 -0.998598 -5.89111 0.445023 0.30962
5.8696 -0.453702 0.10276 10 -0.479311 0.876905 0.0360474 -5.8696 0.453702 -0.10276
5.88029 -0.455561 0.309096 12 -0.479311 0.876905 0.0360474 -5.88029 0.455561 -0.309096
4.00868 -0.311266 -0.781554 4 0.187229 -0.0160215 0.982186 -4.00868 0.311266 0.781554
5.86987 -0.458877 -0.722929 12 -0.501781 0.862739 -0.0624228 -5.86987 0.458877 0.722929
5.88242 -0.460891 0.93454 11 -0.52623 0.850333 -0.00396563 -5.88242 0.460891 -0.93454
5.84759 -0.459189 -0.513173 11 -0.501781 0.862739 -0.0624228 -5.84759 0.459189 0.513173
5.89806 -0.465223 1.3659 11 -0.558507 0.829392 -0.0133969 -5.89806 0.465223 -1.3659
5.86796 -0.46491 1.57724 11 -0.259901 0.0242742 0.96533 -5.86796 0.46491 -1.57724
2.93466 -0.236117 -0.78888 8 0.256691 -0.0218025 0.966248 -2.93466 0.236117 0.78888
5.84813 -0.471556 0.102411 10 -0.48976 0.871797 0.0102074 -5.84813 0.471556 -0.102411
3.38173 -0.273276 -0.78328 6 -0.00201322 -0.00499015 0.999986 -3.38173 0.273276 0.78328
5.85079 -0.473827 0.307631 12 -0.479311 0.876905 0.0360474 -5.85079 0.473827 -0.307631
4.01539 -0.325893 -0.78308 4 0.187229 -0.0160215 0.982186 -4.01539 0.325893 0.78308
5.85034 -0.474818 0.513522 10 -0.56938 0.821785 -0.0218223 -5.85034 0.474818 -0.513522
4.84934 -0.394428 -0.770596 3 0.104148 -0.000802798 0.994562 -4.84934 0.394428 0.770596
5.83864 -0.47592 0.719273 12 -0.56938 0.821785 -0.0218223 -5.83864 0.47592 -0.719273
5.84337 -0.478359 0.928595 11 -0.52623 0.850333 -0.00396563 -5.84337 0.478359 -0.928595
5.8261 -0.477969 -0.51143 11 -0.526216 0.850351 6.8436e-05 -5.8261 0.477969 0.51143
5.84843 -0.480829 1.14066 12 -0.418301 0.907232 0.0441999 -5.84843 0.480829 -1.14066
5.83221 -0.48052 -0.306689 11 -0.526216 0.850351 6.8436e-05 -5.83221 0.48052 0.306689
5.86532 -0.483248 1.3587 11 -0.418301 0.907232 0.0441999 -5.86532 0.483248 -1.3587
5.83326 -0.481631 -0.102166 7 -0.685325 0.723804 -0.0802339 -5.83326 0.481631 0.102166
5.84128 -0.48332 1.57051 9 -0.259901 0.0242742 0.96533 -5.84128 0.48332 -1.57051
4.01613 -0.340774 -0.783462 4 -0.0240318 -0.0223859 0.999461 -4.01613 0.340774 0.783462
5.82077 -0.493899 0.511081 10 -0.56938 0.821785 -0.0218223 -5.82077 0.493899 -0.511081
4.8577 -0.413036 -0.772161 4 0.153035 -0.0135964 0.988127 -4.8577 0.413036 0.772161
5.82386 -0.498257 0.925779 11 -0.52623 0.850333 -0.00396563 -5.82386 0.498257 -0.925779
5.80644 -0.497788 -0.509861 12 -0.526216 0.850351 6.8436e-05 -5.80644 0.497788 0.509861
5.81637 -0.502729 1.5643 10 -0.259901 0.0242742 0.96533 -5.81637 0.502729 -1.5643
2.9367 -0.257961 -0.789916 10 0.256691 -0.0218025 0.966248 -2.9367 0.257961 0.789916
5.78077 -0.508802 0.101294 10 -0.685325 0.723804 -0.0802339 -5.78077 0.508802 -0.101294
4.01492 -0.35479 -0.783462 4 0.187229 -0.0160215 0.982186 -4.01492 0.35479 0.783462
5.79114 -0.51277 0.508641 10 -0.516701 0.856141 -0.0065504 -5.79114 0.51277 -0.508641
4.86206 -0.431361 -0.773099 3 0.153035 -0.0135964 0.988127 -4.86206 0.431361 0.773099
5.7737 -0.513258 0.711717 10 -0.516701 0.856141 -0.0065504 -5.7737 0.513258 -0.711717
5.76966 -0.513913 -0.71123 12 -0.0967557 -0.995272 -0.00849065 -5.76966 0.513913 0.71123
5.78787 -0.519608 1.34161 12 -0.466802 0.884357 0.00305148 -5.78787 0.519608 -1.34161
5.76982 -0.519003 -0.101119 7 -0.0967557 -0.995272 -0.00849065 -5.76982 0.519003 0.101119
2.93578 -0.26821 -0.789916 10 0.256691 -0.0218025 0.966248 -2.93578 0.26821 0.789916
5.73792 -0.527241 0.301978 12 -0.410725 0.911563 -0.0189455 -5.73792 0.527241 -0.301978
5.74147 -0.53262 0.913265 11 -0.731085 0.68222 -0.00955681 -5.74147 0.53262 -0.913265
5.75697 -0.535072 1.12387 12 -0.466802 0.884357 0.00305148 -5.75697 0.535072 -1.12387
5.74209 -0.536721 -0.100665 10 -0.410725 0.911563 -0.0189455 -5.74209 0.536721 0.100665
5.74915 -0.538393 1.54722 14 -0.466802 0.884357 0.00305148 -5.74915 0.538393 -1.54722
3.393 -0.323123 -0.786879 5 0.00130691 0.000878583 0.999999 -3.393 0.323123 0.786879
5.71219 -0.54499 0.300722 12 -0.410725 0.911563 -0.0189455 -5.71219 0.54499 -0.300722
4.0182 -0.38337 -0.784607 4 0.187544 -0.0164274 0.982119 -4.0182 0.38337 0.784607
5.72848 -0.549572 0.706599 12 -0.731085 0.68222 -0.00955681 -5.72848 0.549572 -0.706599
5.7185 -0.549622 -0.70538 12 -0.728544 0.684985 -0.0044355 -5.7185 0.549622 0.70538
5.72385 -0.551144 0.910762 12 -0.731085 0.68222 -0.00955681 -5.72385 0.551144 -0.910762
5.72771 -0.552525 1.11852 12 -0.490422 0.871366 0.014394 -5.72771 0.552525 -1.11852
5.70555 -0.551392 -0.300408 13 -0.463686 0.885968 0.00742481 -5.70555 0.551392 0.300408
5.72979 -0.554744 1.32901 12 -0.466802 0.884357 0.00305148 -5.72979 0.554744 -1.32901
5.70635 -0.55348 -0.100072 7 -0.410725 0.911563 -0.0189455 -5.70635 0.55348 0.100072
5.70493 -0.554348 1.53583 12 -0.585739 0.807727 -0.0669881 -5.70493 0.554348 -1.53583
2.92615 -0.287942 -0.787845 8 0.251978 -0.0262745 0.967376 -2.92615 0.287942 0.787845
3.37633 -0.333432 -0.78328 5 0.197685 -0.0214638 0.980031 -3.37633 0.333432 0.78328
5.6864 -0.562567 0.299466 12 -0.417325 0.907863 0.040306 -5.6864 0.562567 -0.299466
4.03247 -0.39894 -0.78766 4 0.187544 -0.0164274 0.982119 -4.03247 0.39894 0.78766
5.68668 -0.568608 1.11089 13 -0.490422 0.871366 0.014394 -5.68668 0.568608 -1.11089
5.66782 -0.567722 -0.298524 11 -0.463686 0.885968 0.00742481 -5.66782 0.567722 0.298524
5.70455 -0.572406 1.32361 12 -0.585739 0.807727 -0.0669881 -5.70455 0.572406 -1.32361
5.64976 -0.576871 0.0991297 12 -0.411965 0.910797 -0.0270687 -5.64976 0.576871 -0.0991297
3.37903 -0.345612 -0.784179 6 -0.232612 0.0217659 -0.972326 -3.37903 0.345612 0.784179
5.65668 -0.578575 0.298001 12 -0.417325 0.907863 0.040306 -5.65668 0.578575 -0.298001
4.86342 -0.500012 -0.774351 3 -0.175653 0.014428 -0.984346 -4.86342 0.500012 0.774351
5.64749 -0.581619 -0.697093 12 -0.483319 0.875005 -0.0277382 -5.64749 0.581619 0.697093
5.6403 -0.582869 -0.496091 12 -0.463686 0.885968 0.00742481 -5.6403 0.582869 0.496091
5.66903 -0.586838 1.10784 12 -0.490422 0.871366 0.014394 -5.66903 0.586838 -1.10784
5.64477 -0.586317 -0.0990599 9 -0.411965 0.910797 -0.0270687 -5.64477 0.586317 0.0990599
4.0199 -0.425346 -0.785751 2 0.187544 -0.0164274 0.982119 -4.0199 0.425346 0.785751
5.63876 -0.597633 0.496091 10 -0.326127 0.945319 0.00376888 -5.63876 0.597633 -0.496091
5.6179 -0.597405 -0.69368 14 -0.691679 0.722195 0.00383015 -5.6179 0.597405 0.69368
5.63548 -0.600269 0.897621 11 -0.326127 0.945319 0.00376888 -5.63548 0.600269 -0.897621
5.63862 -0.60359 1.30922 12 -0.589624 0.807616 -0.00996904 -5.63862 0.60359 -1.30922
5.61098 -0.601622 -0.0985014 9 -0.460506 0.887536 -0.0146219 -5.61098 0.601622 0.0985014
5.60208 -0.609569 0.0983618 12 -0.460506 0.887536 -0.0146219 -5.60208 0.609569 -0.0983618
3.38441 -0.36886 -0.785979 5 -0.232612 0.0217659 -0.972326 -3.38441 0.36886 0.785979
5.59317 -0.611564 0.492256 10 -0.357787 0.933332 0.029668 -5.59317 0.611564 -0.492256
5.59418 -0.614639 0.891364 11 -0.326127 0.945319 0.00376888 -5.59418 0.614639 -0.891364
5.5769 -0.613725 -0.490861 13 -0.389057 0.921095 -0.0147589 -5.5769 0.613725 0.490861
5.58635 -0.616738 -0.294547 13 -0.389057 0.921095 -0.0147589 -5.58635 0.616738 0.294547
5.61334 -0.619719 1.30382 12 -0.589624 0.807616 -0.00996904 -5.61334 0.619719 -1.30382
5.5851 -0.617588 -0.0980825 11 -0.460506 0.887536 -0.0146219 -5.5851 0.617588 0.0980825
5.58176 -0.618205 1.50477 13 -0.421847 0.906359 -0.0236125 -5.58176 0.618205 -1.50477
4.0248 -0.452876 -0.787278 4 -0.190124 0.0242594 -0.98146 -4.0248 0.452876 0.787278
5.55548 -0.626092 0.489118 12 -0.357787 0.933332 0.029668 -5.55548 0.626092 -0.489118
5.55306 -0.629746 -0.488944 12 -0.389057 0.921095 -0.0147589 -5.55306 0.629746 0.488944
5.57318 -0.633013 1.09028 12 -0.421847 0.906359 -0.0236125 -5.57318 0.633013 -1.09028
5.58028 -0.634806 1.29662 12 -0.326758 0.945106 -0.00209322 -5.58028 0.634806 -1.29662
2.92655 -0.338613 -0.789398 10 0.143843 -0.0177393 0.989442 -2.92655 0.338613 0.789398
5.51823 -0.639457 0.0969656 17 -0.206837 0.978128 -0.0220122 -5.51823 0.639457 -0.0969656
3.37014 -0.39113 -0.78328 5 0.197685 -0.0214638 0.980031 -3.37014 0.39113 0.78328
4.02896 -0.468304 -0.788423 4 -0.190124 0.0242594 -0.98146 -4.02896 0.468304 0.788423
5.54721 -0.645759 0.488595 15 -0.461057 0.887369 0.00145958 -5.54721 0.645759 -0.488595
5.51509 -0.645923 -0.485806 22 -0.32538 0.945527 -0.0103361 -5.51509 0.645923 0.485806
5.55457 -0.653495 1.29122 18 -0.326758 0.945106 -0.00209322 -5.55457 0.653495 -1.29122
5.54082 -0.652858 -0.0973844 19 -0.308493 0.951073 -0.0170974 -5.54082 0.652858 0.0973844
5.50206 -0.657055 0.0967212 14 -0.308493 0.951073 -0.0170974 -5.50206 0.657055 -0.0967212
4.02145 -0.481665 -0.787278 4 -0.190124 0.0242594 -0.98146 -4.02145 0.481665 0.787278
5.51058 -0.662951 0.681493 14 -0.459551 0.887991 0.0168686 -5.51058 0.662951 -0.681493
5.47893 -0.660113 -0.677594 14 -0.415442 0.90946 0.0170368 -5.47893 0.660113 0.677594
5.52849 -0.667063 0.881978 11 -0.459551 0.887991 0.0168686 -5.52849 0.667063 -0.881978
5.5155 -0.668426 1.28267 15 -0.699692 0.714028 -0.0243903 -5.5155 0.668426 -1.28267
5.51072 -0.668822 -0.0968958 11 -0.256053 0.966485 -0.0185153 -5.51072 0.668822 0.0968958
2.92603 -0.359272 -0.789916 8 -0.256808 0.0342627 -0.965855 -2.92603 0.359272 0.789916
3.39053 -0.417506 -0.788678 5 0.180609 -0.0231364 0.983283 -3.39053 0.417506 0.788678
5.46505 -0.673928 0.288581 14 -0.256053 0.966485 -0.0185153 -5.46505 0.673928 -0.288581
5.49115 -0.67812 0.484063 12 -0.459551 0.887991 0.0168686 -5.49115 0.67812 -0.484063
4.84425 -0.599091 -0.773099 2 -0.160411 0.0177798 -0.98689 -4.84425 0.599091 0.773099
5.4569 -0.676791 -0.675156 14 -0.519296 0.854411 -0.0176739 -5.4569 0.676791 0.675156
5.49084 -0.681974 0.876346 11 -0.459551 0.887991 0.0168686 -5.49084 0.681974 -0.876346
5.45827 -0.679864 -0.288266 13 -0.415442 0.90946 0.0170368 -5.45827 0.679864 0.288266
5.48413 -0.684057 1.27592 13 -0.458642 0.886403 -0.0627457 -5.48413 0.684057 -1.27592
5.47662 -0.685061 1.47889 14 -0.458642 0.886403 -0.0627457 -5.47662 0.685061 -1.47889
3.37745 -0.42787 -0.785979 6 -0.0192721 -0.00897756 0.999774 -3.37745 0.42787 0.785979
5.44285 -0.690487 0.287534 14 -0.427213 0.904098 0.00976969 -5.44285 0.690487 -0.287534
3.99657 -0.50701 -0.78308 4 -0.00201322 -0.00499015 0.999986 -3.99657 0.50701 0.78308
5.44527 -0.69176 0.480228 12 -0.0870723 0.0125257 0.996123 -5.44527 0.69176 -0.480228
5.43013 -0.698505 1.46699 15 -0.458642 0.886403 -0.0627457 -5.43013 0.698505 -1.46699
2.91196 -0.378197 -0.78681 10 -0.256808 0.0342627 -0.965855 -2.91196 0.378197 0.78681
5.42151 -0.705093 0.0954298 11 -0.427213 0.904098 0.00976969 -5.42151 0.705093 -0.0954298
5.4206 -0.706899 0.286487 14 -0.427213 0.904098 0.00976969 -5.4206 0.706899 -0.286487
5.40874 -0.709193 -0.669794 14 -0.630218 0.774865 -0.0490912 -5.40874 0.709193 0.669794
5.39281 -0.70902 -0.47587 11 -0.630218 0.774865 -0.0490912 -5.39281 0.70902 0.47587
5.42555 -0.71525 -0.286801 12 0.0517644 -0.00671574 0.998637 -5.42555 0.71525 0.286801
5.43478 -0.716468 1.26557 18 -0.458642 0.886403 -0.0627457 -5.43478 0.716468 -1.26557
5.4023 -0.713145 -0.0951156 9 -0.592274 0.803508 -0.0598884 -5.4023 0.713145 0.0951156
5.37925 -0.719656 0.0947317 11 -0.592274 0.803508 -0.0598884 -5.37925 0.719656 -0.0947317
5.38884 -0.723811 0.475696 12 -0.0870723 0.0125257 0.996123 -5.38884 0.723811 -0.475696
5.39246 -0.726214 0.668088 12 -0.558937 0.828896 0.022833 -5.39246 0.726214 -0.668088
5.37241 -0.726378 -0.474302 12 -0.630218 0.774865 -0.0490912 -5.37241 0.726378 0.474302
5.37905 -0.7311 1.45456 16 0.255276 -0.0340265 -0.966269 -5.37905 0.7311 -1.45456
2.91676 -0.400584 -0.78888 8 -0.256808 0.0342627 -0.965855 -2.91676 0.400584 0.78888
5.35676 -0.736643 0.0943826 11 -0.480358 0.876158 -0.0400499 -5.35676 0.736643 -0.0943826
4.82931 -0.667545 -0.772161 3 -0.000221674 -1.05434e-05 1 -4.82931 0.667545 0.772161
5.3642 -0.742435 0.664919 14 -0.457855 0.888326 0.0353133 -5.3642 0.742435 -0.664919
5.35633 -0.741347 -0.663944 14 -0.372635 0.927977 -0.00138138 -5.35633 0.741347 0.663944
5.37499 -0.744885 0.859451 11 -0.558937 0.828896 0.022833 -5.37499 0.744885 -0.859451
5.35924 -0.74747 1.4499 16 0.255276 -0.0340265 -0.966269 -5.35924 0.74747 -1.4499
3.36335 -0.474484 -0.784179 6 -0.228093 0.0342341 -0.973037 -3.36335 0.474484 0.784179
5.31995 -0.750511 0.281567 16 -0.427213 0.904098 0.00976969 -5.31995 0.750511 -0.281567
4.01816 -0.567576 -0.788804 4 -0.190124 0.0242594 -0.98146 -4.01816 0.567576 0.788804
5.34025 -0.755277 0.471861 12 -0.4527 0.891175 0.0294809 -5.34025 0.755277 -0.471861
5.34205 -0.757433 0.662482 14 -0.4527 0.891175 0.0294809 -5.34205 0.757433 -0.662482
5.3224 -0.754646 -0.660044 13 -0.372635 0.927977 -0.00138138 -5.3224 0.754646 0.660044
5.33183 -0.757883 -0.471164 12 -0.250072 0.968226 0.00123363 -5.33183 0.757883 0.471164
5.3189 -0.757938 -0.281567 12 -0.250072 0.968226 0.00123363 -5.3189 0.757938 0.281567
5.33245 -0.759869 1.24353 15 -0.412722 0.910609 -0.0212585 -5.33245 0.759869 -1.24353
5.32996 -0.761413 1.44266 16 0.255276 -0.0340265 -0.966269 -5.32996 0.761413 -1.44266
2.91022 -0.419369 -0.787845 10 -0.256808 0.0342627 -0.965855 -2.91022 0.419369 0.787845
5.2916 -0.76536 0.280207 14 -0.444073 0.895673 -0.0238632 -5.2916 0.76536 -0.280207
5.31987 -0.772292 0.660044 14 -0.4527 0.891175 0.0294809 -5.31987 0.772292 -0.660044
5.31115 -0.77292 0.850065 11 -0.457855 0.888326 0.0353133 -5.31115 0.77292 -0.850065
5.32117 -0.775326 1.04525 12 -0.412722 0.910609 -0.0212585 -5.32117 0.775326 -1.04525
5.28473 -0.770959 -0.279893 12 -0.250072 0.968226 0.00123363 -5.28473 0.770959 0.279893
5.29091 -0.773746 -0.0933355 13 -0.729384 0.664187 -0.163874 -5.29091 0.773746 0.0933355
2.90874 -0.429525 -0.787845 8 -0.257366 0.0387398 -0.965537 -2.90874 0.429525 0.787845
5.26914 -0.780898 0.27916 15 -0.444073 0.895673 -0.0238632 -5.26914 0.780898 -0.27916
4.83012 -0.717558 -0.773412 3 -0.159951 0.0249225 -0.98681 -4.83012 0.717558 0.773412
5.29279 -0.789124 0.847562 11 -0.457855 0.888326 0.0353133 -5.29279 0.789124 -0.847562
2.90531 -0.439387 -0.787328 10 -0.257366 0.0387398 -0.965537 -2.90531 0.439387 0.787328
5.23552 -0.792732 0.0924279 11 -0.729384 0.664187 -0.163874 -5.23552 0.792732 -0.0924279
5.24861 -0.796589 0.278218 15 -0.0524032 0.0095294 0.998581 -5.24861 0.796589 -0.278218
4.0024 -0.607449 -0.786896 4 0.183351 -0.0315526 0.982541 -4.0024 0.607449 0.786896
5.25734 -0.798853 0.465237 12 -0.425596 0.90491 -0.00253965 -5.25734 0.798853 -0.465237
5.25351 -0.800147 0.652489 12 -0.425596 0.90491 -0.00253965 -5.25351 0.800147 -0.652489
5.24356 -0.799567 -0.65127 13 0.119303 -0.0160278 0.992729 -5.24356 0.799567 0.65127
5.25095 -0.801632 0.841305 12 -0.407391 0.913244 0.00412616 -5.25095 0.801632 -0.841305
5.25352 -0.802963 1.03304 12 -0.42497 0.905196 0.00454552 -5.25352 0.802963 -1.03304
5.23579 -0.801188 -0.27759 12 -0.370248 0.926789 0.0630795 -5.23579 0.801188 0.27759
5.26166 -0.807027 -0.0929166 11 -0.729384 0.664187 -0.163874 -5.26166 0.807027 0.0929166
5.24532 -0.805457 1.42195 16 0.254627 -0.0374125 -0.966315 -5.24532 0.805457 -1.42195
5.21619 -0.810306 0.276648 13 -0.0524032 0.0095294 0.998581 -5.21619 0.810306 -0.276648
4.00995 -0.622923 -0.788804 4 0.168351 -0.0292779 0.985292 -4.00995 0.622923 0.788804
5.22518 -0.814505 0.64932 13 -0.572361 0.819827 -0.0169134 -5.22518 0.814505 -0.64932
5.20935 -0.812968 -0.64737 15 0.119303 -0.0160278 0.992729 -5.20935 0.812968 0.64737
5.23661 -0.820968 1.22373 13 -0.465275 0.883621 0.0522779 -5.23661 0.820968 -1.22373
5.19826 -0.824253 0.0918695 9 -0.428166 0.903296 -0.0270297 -5.19826 0.824253 -0.0918695
5.18966 -0.824747 0.275392 13 -0.0524032 0.0095294 0.998581 -5.18966 0.824747 -0.275392
3.99806 -0.635376 -0.786896 4 0.183351 -0.0315526 0.982541 -3.99806 0.635376 0.786896
5.21032 -0.828962 0.461577 12 -0.572361 0.819827 -0.0169134 -5.21032 0.828962 -0.461577
4.8438 -0.771517 -0.776854 3 0.150218 -0.0259418 0.988312 -4.8438 0.771517 0.776854
5.20075 -0.829301 0.646639 14 -0.572361 0.819827 -0.0169134 -5.20075 0.829301 -0.646639
5.21062 -0.835539 1.21833 13 -0.465275 0.883621 0.0522779 -5.21062 0.835539 -1.21833
5.18482 -0.83233 -0.09166 11 -0.428166 0.903296 -0.0270297 -5.18482 0.83233 0.09166
3.99582 -0.649328 -0.786896 4 -0.190009 0.0324467 -0.981246 -3.99582 0.649328 0.786896
5.17431 -0.843617 0.643714 11 -0.545993 0.837673 -0.0140179 -5.17431 0.843617 -0.643714
5.16819 -0.844471 0.829416 12 -0.545993 0.837673 -0.0140179 -5.16819 0.844471 -0.829416
5.18282 -0.847791 1.02083 12 -0.385046 0.921772 0.045567 -5.18282 0.847791 -1.02083
5.17192 -0.846935 -0.274659 14 -0.53577 0.844262 -0.0131162 -5.17192 0.846935 0.274659
5.19037 -0.850885 1.21429 15 -0.444078 0.892406 -0.0800413 -5.19037 0.850885 -1.21429
5.15425 -0.845889 -0.0911714 12 -0.53577 0.844262 -0.0131162 -5.15425 0.845889 0.0911714
2.89889 -0.479908 -0.787328 10 -0.266764 0.0456561 -0.96268 -2.89889 0.479908 0.787328
3.36815 -0.558802 -0.788229 5 -0.228093 0.0342341 -0.973037 -3.36815 0.558802 0.788229
5.1424 -0.854086 0.273194 15 -0.502578 0.864278 -0.0209245 -5.1424 0.854086 -0.273194
3.98771 -0.662307 -0.785751 4 -0.190009 0.0324467 -0.981246 -3.98771 0.662307 0.785751
5.13954 -0.854533 0.455824 12 -0.398293 0.91647 0.0380141 -5.13954 0.854533 -0.455824
5.14181 -0.857677 -0.640058 15 -0.421775 0.906043 -0.0345368 -5.14181 0.857677 0.640058
5.14572 -0.859252 0.826287 12 -0.545993 0.837673 -0.0140179 -5.14572 0.859252 -0.826287
5.12322 -0.855495 -0.45443 12 -0.421775 0.906043 -0.0345368 -5.12322 0.855495 0.45443
5.15272 -0.861346 1.01549 12 -0.385046 0.921772 0.045567 -5.15272 0.861346 -1.01549
5.14136 -0.860368 -0.273194 12 -0.53577 0.844262 -0.0131162 -5.14136 0.860368 0.273194
5.15661 -0.863846 1.20709 15 -0.444078 0.892406 -0.0800413 -5.15661 0.863846 -1.20709
5.14733 -0.863214 -0.0911016 10 -0.53577 0.844262 -0.0131162 -5.14733 0.863214 0.0911016
5.13068 -0.861343 1.394 18 -0.444078 0.892406 -0.0800413 -5.13068 0.861343 -1.394
2.89529 -0.489702 -0.78681 8 -0.266764 0.0456561 -0.96268 -2.89529 0.489702 0.78681
5.10259 -0.863954 0.0903337 11 -0.502578 0.864278 -0.0209245 -5.10259 0.863954 -0.0903337
3.36426 -0.57023 -0.787779 5 -0.228093 0.0342341 -0.973037 -3.36426 0.57023 0.787779
5.12278 -0.870132 0.454604 12 -0.398293 0.91647 0.0380141 -5.12278 0.870132 -0.454604
4.82183 -0.81988 -0.774664 4 -0.0240318 -0.0223859 0.999461 -4.82183 0.81988 0.774664
5.11139 -0.870952 -0.636646 13 -0.457369 0.888846 -0.0276938 -5.11139 0.870952 0.636646
5.12322 -0.873887 0.823158 11 -0.545993 0.837673 -0.0140179 -5.12322 0.873887 -0.823158
5.10057 -0.870023 -0.452687 12 -0.457369 0.888846 -0.0276938 -5.10057 0.870023 0.452687
5.09895 -0.871579 -0.2711 12 -0.421554 0.906384 -0.0275964 -5.09895 0.871579 0.2711
5.13244 -0.878226 1.20214 13 -0.385046 0.921772 0.045567 -5.13244 0.878226 -1.20214
5.10289 -0.875003 1.38727 17 -0.444078 0.892406 -0.0800413 -5.10289 0.875003 -1.38727
2.90689 -0.502107 -0.790433 10 -0.266173 0.0471072 -0.962774 -2.90689 0.502107 0.790433
3.34881 -0.579643 -0.784629 5 -0.238574 0.038581 -0.970358 -3.34881 0.579643 0.784629
5.08318 -0.880759 0.270368 15 -0.468154 0.883614 -0.00763759 -5.08318 0.880759 -0.270368
5.09812 -0.884263 0.452687 12 -0.445656 0.895086 -0.0145755 -5.09812 0.884263 -0.452687
4.83061 -0.838733 -0.776541 4 -0.159951 0.0249225 -0.98681 -4.83061 0.838733 0.776541
5.08094 -0.884025 -0.633233 15 -0.457369 0.888846 -0.0276938 -5.08094 0.884025 0.633233
5.10457 -0.889054 0.820655 11 -0.357001 0.932609 0.0528356 -5.10457 0.889054 -0.820655
5.0818 -0.885087 -0.451292 12 -0.421554 0.906384 -0.0275964 -5.0818 0.885087 0.451292
5.10966 -0.893616 -0.0905431 10 -0.502578 0.864278 -0.0209245 -5.10966 0.893616 0.0905431
5.07697 -0.888812 1.38106 16 -0.444078 0.892406 -0.0800413 -5.07697 0.888812 -1.38106
2.90702 -0.512587 -0.790951 10 -0.266173 0.0471072 -0.962774 -2.90702 0.512587 0.790951
5.06492 -0.893994 0.0897752 11 -0.43932 0.898151 -0.0179725 -5.06492 0.893994 -0.0897752
5.05647 -0.894323 0.269112 15 -0.468154 0.883614 -0.00763759 -5.05647 0.894323 -0.269112
5.07734 -0.898928 0.451118 12 -0.445656 0.895086 -0.0145755 -5.07734 0.898928 -0.451118
4.82571 -0.855246 -0.776228 3 0.13639 -0.0296671 0.990211 -4.82571 0.855246 0.776228
5.07032 -0.901335 0.815649 11 -0.357001 0.932609 0.0528356 -5.07032 0.901335 -0.815649
5.05317 -0.898288 -0.449026 13 -0.421554 0.906384 -0.0275964 -5.05317 0.898288 0.449026
5.05538 -0.9005 -0.269112 14 -0.519804 0.853277 0.0415002 -5.05538 0.9005 0.269112
5.05926 -0.903014 -0.0897054 10 -0.43932 0.898151 -0.0179725 -5.05926 0.903014 0.0897054
3.98581 -0.719315 -0.787278 4 -0.190009 0.0324467 -0.981246 -3.98581 0.719315 0.787278
5.04476 -0.911333 0.448503 12 -0.445656 0.895086 -0.0145755 -5.04476 0.911333 -0.448503
4.83436 -0.874194 -0.778105 3 0.150218 -0.0259418 0.988312 -4.83436 0.874194 0.778105
5.0477 -0.915503 0.812521 11 -0.63979 0.768277 -0.0204724 -5.0477 0.915503 -0.812521
5.02256 -0.910943 -0.446586 13 -0.44439 0.895736 -0.0131992 -5.02256 0.910943 0.446586
5.03059 -0.914213 -0.26796 12 -0.519804 0.853277 0.0415002 -5.03059 0.914213 0.26796
5.01932 -0.914881 1.36708 15 -0.505606 0.854384 -0.119959 -5.01932 0.914881 -1.36708
3.37514 -0.620671 -0.792278 6 -0.224737 0.0397105 -0.97361 -3.37514 0.620671 0.792278
5.01279 -0.922732 0.267123 15 -0.77692 0.629553 -0.00768147 -5.01279 0.922732 -0.267123
4.83322 -0.891422 -0.778418 4 0.150899 -0.030067 0.988092 -4.83322 0.891422 0.778418
5.03643 -0.92981 0.628846 13 -0.63979 0.768277 -0.0204724 -5.03643 0.92981 -0.628846
5.00113 -0.924196 -0.624459 12 -0.44439 0.895736 -0.0131992 -5.00113 0.924196 0.624459
5.03266 -0.93184 0.994878 12 -0.307691 0.951024 0.0296671 -5.03266 0.93184 -0.994878
5.0392 -0.934871 1.18324 12 -0.307691 0.951024 0.0296671 -5.0392 0.934871 -1.18324
2.9034 -0.543356 -0.791469 10 -0.266173 0.0471072 -0.962774 -2.9034 0.543356 0.791469
4.99776 -0.938013 0.266495 15 -0.77692 0.629553 -0.00768147 -4.99776 0.938013 -0.266495
4.99716 -0.938804 0.444843 12 -0.500404 0.865759 0.00756973 -4.99716 0.938804 -0.444843
4.83008 -0.908288 -0.778418 5 0.13639 -0.0296671 0.990211 -4.83008 0.908288 0.778418
4.98633 -0.938572 0.622996 13 -0.500404 0.865759 0.00756973 -4.98633 0.938572 -0.622996
4.97676 -0.939469 -0.4431 12 -0.519804 0.853277 0.0415002 -4.97676 0.939469 0.4431
4.99465 -0.942847 0.988009 12 -0.307691 0.951024 0.0296671 -4.99465 0.942847 -0.988009
4.98287 -0.941523 -0.265762 14 -0.339899 0.940447 -0.00521665 -4.98287 0.941523 0.265762
5.01676 -0.948834 1.17874 13 -0.17374 0.984788 -0.00249812 -5.01676 0.948834 -1.17874
4.98665 -0.944041 -0.0885884 12 -0.635338 0.771625 -0.0306531 -4.98665 0.944041 0.0885884
4.97485 -0.942706 1.35673 14 -0.505606 0.854384 -0.119959 -4.97485 0.942706 -1.35673
2.89569 -0.552907 -0.789916 8 -0.266764 0.0456561 -0.96268 -2.89569 0.552907 0.789916
4.95963 -0.946997 0.0881347 13 -0.635338 0.771625 -0.0306531 -4.95963 0.946997 -0.0881347
3.98564 -0.763185 -0.788804 4 -0.197664 0.0370384 -0.97957 -3.98564 0.763185 0.788804
4.9839 -0.955238 0.443971 12 -0.26451 0.964381 0.00202686 -4.9839 0.955238 -0.443971
4.8306 -0.926729 -0.779044 5 0.13639 -0.0296671 0.990211 -4.8306 0.926729 0.779044
4.95946 -0.95235 -0.620071 14 -0.339899 0.940447 -0.00521665 -4.95946 0.95235 0.620071
4.97964 -0.957126 0.803135 12 -0.26451 0.964381 0.00202686 -4.97964 0.957126 -0.803135
4.95193 -0.952694 -0.441182 13 -0.339899 0.940447 -0.00521665 -4.95193 0.952694 0.441182
4.96996 -0.957063 0.983811 13 -0.17374 0.984788 -0.00249812 -4.96996 0.957063 -0.983811
4.95193 -0.954488 -0.264297 14 -0.315847 0.948672 -0.0162044 -4.95193 0.954488 0.264297
2.90512 -0.565225 -0.793022 8 -0.266173 0.0471072 -0.962774 -2.90512 0.565225 0.793022
4.93211 -0.962278 0.263355 15 0.0156593 0.999749 0.0160298 -4.93211 0.962278 -0.263355
4.9512 -0.966901 0.441357 13 0.0156593 0.999749 0.0160298 -4.9512 0.966901 -0.441357
4.83703 -0.94548 -0.780608 6 0.150899 -0.030067 0.988092 -4.83703 0.94548 0.780608
4.94121 -0.968531 0.797503 11 -0.599478 0.800183 0.0182373 -4.94121 0.968531 -0.797503
4.93276 -0.967769 -0.439788 12 -0.315847 0.948672 -0.0162044 -4.93276 0.967769 0.439788
4.92483 -0.968892 -0.0876111 12 -0.188251 0.982009 0.0148412 -4.92483 0.968892 0.0876111
4.91938 -0.975848 0.0875413 11 -0.188251 0.982009 0.0148412 -4.91938 0.975848 -0.0875413
3.36411 -0.667943 -0.791828 5 -0.22062 0.0451488 -0.974314 -3.36411 0.667943 0.791828
3.98585 -0.792835 -0.789949 4 -0.197664 0.0370384 -0.97957 -3.98585 0.792835 0.789949
4.92544 -0.981518 0.616659 13 -0.599478 0.800183 0.0182373 -4.92544 0.981518 -0.616659
4.90969 -0.979272 -0.614709 14 -0.99869 -0.0479994 0.0177499 -4.90969 0.979272 0.614709
4.90189 -0.981273 -0.261994 14 -0.362378 0.931539 0.0302822 -4.90189 0.981273 0.261994
4.91162 -0.984113 -0.0874366 10 -0.362378 0.931539 0.0302822 -4.91162 0.984113 0.0874366
4.90771 -0.984221 1.3412 16 -0.5796 0.814857 -0.00847814 -4.90771 0.984221 -1.3412
2.88984 -0.582695 -0.789916 8 -0.300352 0.0509953 -0.952464 -2.88984 0.582695 0.789916
4.8828 -0.985431 0.0869479 12 -0.221569 -0.975118 -0.0072372 -4.8828 0.985431 -0.0869479
3.35806 -0.678324 -0.790928 4 -0.22062 0.0451488 -0.974314 -3.35806 0.678324 0.790928
4.88433 -0.987516 0.261156 12 -0.221569 -0.975118 -0.0072372 -4.88433 0.987516 -0.261156
4.88397 -0.98833 0.435953 12 -0.221569 -0.975118 -0.0072372 -4.88397 0.98833 -0.435953
4.82854 -0.977991 -0.780295 12 0.13639 -0.0296671 0.990211 -4.82854 0.977991 0.780295
4.89881 -0.993113 0.613734 13 -0.221569 -0.975118 -0.0072372 -4.89881 0.993113 -0.613734
4.88307 -0.99081 -0.611784 12 -0.613679 0.787833 -0.0521339 -4.88307 0.99081 0.611784
4.89578 -0.994279 0.791246 12 -0.5796 0.814857 -0.00847814 -4.89578 0.994279 -0.791246
4.90373 -0.998566 1.15535 13 -0.5796 0.814857 -0.00847814 -4.90373 0.998566 -1.15535
4.84603 -0.995628 0.0863545 10 -0.99301 -0.117942 -0.00457423 -4.84603 0.995628 -0.0863545
4.86716 -1.00174 0.260424 14 -0.89394 0.448115 -0.0080696 -4.86716 1.00174 -0.260424
3.98613 -0.821135 -0.791094 4 -0.197664 0.0370384 -0.97957 -3.98613 0.821135 0.791094
4.87836 -1.00582 0.435779 12 -0.0275542 0.999552 0.0116934 -4.87836 1.00582 -0.435779
4.8346 -0.997678 -0.78186 16 0.150899 -0.030067 0.988092 -4.8346 0.997678 0.78186
4.87199 -1.00539 0.610809 13 -0.0275542 0.999552 0.0116934 -4.87199 1.00539 -0.610809
4.87681 -1.00816 0.788743 12 -0.0275542 0.999552 0.0116934 -4.87681 1.00816 -0.788743
4.87729 -1.01004 0.968165 12 -0.5796 0.814857 -0.00847814 -4.87729 1.01004 -0.968165
4.84425 -1.00408 -0.259272 13 -0.362378 0.931539 0.0302822 -4.84425 1.00408 0.259272
4.86564 -1.0094 -0.0867385 12 -0.89394 0.448115 -0.0080696 -4.86564 1.0094 0.0867385
2.90073 -0.606522 -0.794057 8 0.239799 -0.0553214 0.969245 -2.90073 0.606522 0.794057
3.33786 -0.69914 -0.787329 5 -0.22062 0.0451488 -0.974314 -3.33786 0.69914 0.787329
4.83218 -1.01302 0.258749 14 -0.801402 0.596028 0.0500656 -4.83218 1.01302 -0.258749
3.98516 -0.835447 -0.791476 4 0.185805 -0.0386921 0.981825 -3.98516 0.835447 0.791476
4.81758 -1.01347 -0.604472 14 -0.590326 0.806535 0.0318822 -4.81758 1.01347 0.604472
4.86148 -1.02359 0.786865 11 -0.892311 0.451143 -0.0158652 -4.86148 1.02359 -0.786865
4.82537 -1.01598 -0.431421 12 -0.999995 0.00256734 -0.00205015 -4.82537 1.01598 0.431421
4.85837 -1.02382 0.965112 13 -0.892311 0.451143 -0.0158652 -4.85837 1.02382 -0.965112
4.85451 -1.02478 1.14545 13 -0.892311 0.451143 -0.0158652 -4.85451 1.02478 -1.14545
4.85017 -1.02474 -0.086529 12 -0.99301 -0.117942 -0.00457423 -4.85017 1.02474 0.086529
4.84043 -1.02357 1.32567 15 -0.99301 -0.117942 -0.00457423 -4.84043 1.02357 -1.32567
2.90237 -0.617448 -0.795092 8 0.239799 -0.0553214 0.969245 -2.90237 0.617448 0.795092
4.81726 -1.0257 0.0859706 12 -0.801402 0.596028 0.0500656 -4.81726 1.0257 -0.0859706
3.97454 -0.847715 -0.789949 5 0.185805 -0.0386921 0.981825 -3.97454 0.847715 0.789949
4.8082 -1.02728 -0.778731 16 -0.0240318 -0.0223859 0.999461 -4.8082 1.02728 0.778731
4.83167 -1.03317 0.606666 14 -0.439217 0.897914 0.0289783 -4.83167 1.03317 -0.606666
4.80815 -1.0299 -0.430201 13 -0.590326 0.806535 0.0318822 -4.80815 1.0299 0.430201
4.80978 -1.03201 -0.257807 13 -0.590326 0.806535 0.0318822 -4.80978 1.03201 0.257807
4.82804 -1.0368 1.14005 13 0.215562 -0.0414832 -0.975609 -4.82804 1.0368 -1.14005
4.81138 -1.0341 -0.0859007 12 -0.375125 0.922427 -0.0917106 -4.81138 1.0341 0.0859007
4.81417 -1.03558 1.31946 16 0.252091 -0.0564016 -0.966058 -4.81417 1.03558 -1.31946
2.88887 -0.625124 -0.791986 8 -0.257838 0.053548 -0.964703 -2.88887 0.625124 0.791986
4.79785 -1.03996 0.257284 15 0.0509192 -0.0110095 -0.998642 -4.79785 1.03996 -0.257284
3.95621 -0.858254 -0.786896 5 0.185805 -0.0386921 0.981825 -3.95621 0.858254 0.786896
4.79358 -1.04079 0.429155 12 -0.439217 0.897914 0.0289783 -4.79358 1.04079 -0.429155
4.80863 -1.04581 0.604228 14 -0.439217 0.897914 0.0289783 -4.80863 1.04581 -0.604228
4.79264 -1.04321 0.776854 11 -0.440818 0.897305 0.0228697 -4.79264 1.04321 -0.776854
4.81274 -1.04935 0.95748 12 -0.440818 0.897305 0.0228697 -4.81274 1.04935 -0.95748
4.79054 -1.04538 -0.25697 13 0.0509113 -0.0110524 0.998642 -4.79054 1.04538 0.25697
2.8829 -0.634374 -0.790951 8 -0.257838 0.053548 -0.964703 -2.8829 0.634374 0.790951
4.76721 -1.04901 0.0852026 12 -0.0172123 0.00411821 0.999843 -4.76721 1.04901 -0.0852026
3.34761 -0.737246 -0.791378 5 0.216085 -0.0476085 0.975213 -3.34761 0.737246 0.791378
4.77468 -1.0524 0.256237 14 0.0509192 -0.0110095 -0.998642 -4.77468 1.0524 -0.256237
4.75287 -1.04934 -0.770909 24 -0.280403 0.959861 0.00637523 -4.75287 1.04934 0.770909
4.77739 -1.05737 0.774976 11 -0.440818 0.897305 0.0228697 -4.77739 1.05737 -0.774976
4.75027 -1.05224 -0.425669 11 -0.569999 0.821594 -0.00915529 -4.75027 1.05224 0.425669
4.77856 -1.05851 0.951374 12 -0.440818 0.897305 0.0228697 -4.77856 1.05851 -0.951374
4.77144 -1.0578 -0.256132 13 0.0509113 -0.0110524 0.998642 -4.77144 1.0578 0.256132
4.75737 -1.05643 -0.085063 12 0.0169231 -0.0037461 0.99985 -4.75737 1.05643 0.085063
3.96751 -0.889026 -0.790331 5 0.170185 -0.0405173 0.984579 -3.96751 0.889026 0.790331
4.75492 -1.06808 0.598379 14 -0.439217 0.897914 0.0289783 -4.75492 1.06808 -0.598379
4.74892 -1.0676 -0.597647 14 -0.549547 0.833166 0.0619054 -4.74892 1.0676 0.597647
4.75237 -1.07361 1.30548 14 0.252091 -0.0564016 -0.966058 -4.75237 1.07361 -1.30548
4.72467 -1.07429 0.0845744 12 -0.0172123 0.00411821 0.999843 -4.72467 1.07429 -0.0845744
3.34048 -0.760166 -0.790928 4 -0.220887 0.051136 -0.973958 -3.34048 0.760166 0.790928
4.74375 -1.08124 0.425669 13 0.0847826 -0.0195521 -0.996208 -4.74375 1.08124 -0.425669
4.71461 -1.07546 -0.765903 29 -0.549547 0.833166 0.0619054 -4.71461 1.07546 0.765903
4.72194 -1.07887 -0.594722 14 -0.569999 0.821594 -0.00915529 -4.72194 1.07887 0.594722
4.73909 -1.08365 0.769971 12 -0.38204 0.92351 0.0342733 -4.73909 1.08365 -0.769971
