x,y,z,intensity
2.47208,1.47834,-0.771798,9
2.85752,1.70884,0.0581165,35
2.65453,1.58681,-0.713995,27
2.97293,1.77645,0.181501,26
2.65294,1.58461,-0.600667,55
3.39397,2.02642,0.345834,58
3.36669,2.01013,-0.621045,60
3.387,2.02147,0.484309,48
2.87252,1.71373,-0.4107,12
3.38979,2.02152,0.625112,43
2.72281,1.62312,-0.27733,48
3.38452,2.01758,0.765907,60
2.65769,1.58367,-0.162137,69
3.37694,2.01146,0.907453,56
2.92437,1.7412,-0.059408,12
3.38655,2.01559,1.05598,65
2.46035,1.46027,-0.766622,9
2.8669,1.70089,0.0581863,46
2.64664,1.56959,-0.710395,39
3.04612,1.80578,0.185583,11
2.65143,1.5718,-0.59914,33
3.40067,2.01516,0.345834,58
3.39068,2.00844,-0.624174,61
3.40429,2.0157,0.485771,47
2.87848,1.70369,-0.4107,13
3.41043,2.01773,0.627615,45
2.72475,1.61205,-0.276981,50
3.42196,2.02374,0.772776,63
2.66664,1.57642,-0.162346,58
3.37891,1.99669,0.906103,50
2.93215,1.732,-0.0594429,13
3.39356,2.00375,1.05598,67
2.4721,1.45559,-0.768693,9
2.86593,1.68682,0.0580467,41
2.6689,1.57022,-0.714894,30
3.05929,1.79918,0.186002,11
2.6349,1.5496,-0.594179,43
3.41799,2.00933,0.34688,58
3.39596,1.99559,-0.623861,78
3.41815,2.00782,0.486746,48
2.8827,1.69263,-0.410456,59
3.43789,2.01781,0.63137,43
2.73379,1.60455,-0.27733,50
3.42392,2.0088,0.771632,54
2.68418,1.57417,-0.163079,61
3.41611,2.00262,0.914201,59
2.92092,1.71164,-0.0590938,12
3.40387,1.99385,1.05702,67
2.4805,1.44891,-0.769728,10
2.88044,1.68184,0.0582212,30
2.65585,1.55009,-0.709945,107
2.95859,1.72609,0.179512,10
2.63181,1.53545,-0.592271,73
3.43703,2.00442,0.3481,57
3.41997,1.99367,-0.626989,89
3.42857,1.99788,0.487234,48
2.89202,1.68455,-0.410943,31
3.45175,2.00977,0.632621,42
2.75143,1.60202,-0.27855,52
3.43431,1.99881,0.772395,54
2.68966,1.56479,-0.163079,61
3.43488,1.99754,0.91735,55
2.68312,1.55973,-0.0541723,11
3.42417,1.98972,1.06116,67
2.49891,1.44799,-0.773869,9
3.0576,1.771,0.0616768,27
2.77272,1.60471,0.167894,23
2.63546,1.52526,-0.59189,72
3.46125,2.00238,0.349843,61
3.42862,1.98271,-0.627302,59
3.44927,1.99385,0.489184,45
2.90304,1.67742,-0.411675,27
3.469,2.00364,0.634498,42
2.76046,1.59439,-0.278898,53
3.45146,1.9927,0.774685,52
2.69511,1.5554,-0.163079,61
3.44858,1.98944,0.91915,53
2.69201,1.55235,-0.0542421,63
3.44449,1.98547,1.0653,65
2.5006,1.43733,-0.772834,9
2.71005,1.55709,0.0545562,8
2.67168,1.53442,-0.711295,6
2.80054,1.60843,0.169254,10
2.64417,1.51801,-0.592653,76
3.4855,2.00021,0.351586,61
3.41668,1.95992,-0.623861,48
3.47687,1.99364,0.492108,45
2.89682,1.66037,-0.409968,45
3.4722,1.99016,0.633873,43
2.77292,1.58871,-0.279596,52
3.46862,1.9865,0.776974,52
2.71265,1.55292,-0.163812,60
3.4572,1.97835,0.9196,46
2.68673,1.53746,-0.0540326,63
3.46111,1.97979,1.06841,69
2.49386,1.42189,-0.76921,7
2.71346,1.5471,0.0545213,51
2.69029,1.53327,-0.714894,3
2.83391,1.61447,0.170929,10
2.64434,1.50586,-0.591508,64
3.49246,1.98803,0.351586,61
3.49037,1.98603,0.493083,42
2.91094,1.65566,-0.411187,20
3.48943,1.98388,0.63575,43
2.77499,1.57705,-0.279247,53
3.49226,1.98468,0.78079,52
2.73516,1.55378,-0.164858,61
3.4756,1.97361,0.922749,45
2.69556,1.53005,-0.0541025,38
3.4764,1.97247,1.07099,72
2.50528,1.41742,-0.771281,7
2.73625,1.54747,0.0548704,55
2.72447,1.54018,-0.722543,4
2.87083,1.62225,0.172813,7
2.68376,1.51593,-0.59914,15
3.51118,1.9833,0.352806,62
2.6834,1.51511,-0.488076,49
3.51802,1.98554,0.496008,42
2.90979,1.64159,-0.410212,19
3.51354,1.9814,0.638878,40
2.78742,1.57127,-0.279944,53
3.50635,1.97573,0.782317,54
2.75475,1.55159,-0.165696,59
3.49945,1.97103,0.927248,50
2.72354,1.53338,-0.0545562,62
3.48495,1.96127,1.07151,70
2.51215,1.40917,-0.771798,9
2.73842,1.53547,0.0548006,53
2.7148,1.52161,-0.718494,21
2.90463,1.62734,0.174488,5
2.68759,1.50512,-0.598759,27
3.53059,1.97723,0.354027,61
2.68894,1.50526,-0.488076,58
3.52528,1.97263,0.496008,42
2.92272,1.63479,-0.411187,20
3.53112,1.97429,0.640756,45
2.80011,1.56493,-0.280641,55
3.51699,1.96478,0.78308,54
2.75345,1.53759,-0.165277,60
3.52026,1.96579,0.930847,50
2.72739,1.52241,-0.0545213,61
3.5073,1.95695,1.07617,72
2.51054,1.3962,-0.769728,9
2.75976,1.53417,0.0551147,53
2.86855,1.59399,-0.757635,7
3.0744,1.70838,0.184327,8
2.69969,1.49955,-0.600285,48
3.55698,1.97491,0.355944,58
2.68753,1.49156,-0.486824,57
3.53943,1.96355,0.496983,43
2.92174,1.62022,-0.410212,21
3.55181,1.96961,0.643259,42
2.82996,1.56867,-0.283082,56
3.541,1.962,0.786896,57
2.7588,1.52797,-0.165277,59
3.52574,1.95193,0.930398,44
2.74843,1.5216,-0.0548355,63
3.53608,1.95686,1.0829,69
2.52893,1.39489,-0.773869,9
2.78234,1.53467,0.0554637,55
2.92331,1.61176,-0.770682,6
3.33748,1.83935,0.199714,66
2.71007,1.49295,-0.60143,52
3.57083,1.96633,0.356641,58
2.70803,1.49122,-0.48964,52
3.55983,1.95946,0.498933,43
2.89927,1.59521,-0.406312,28
3.56559,1.96101,0.64451,45
2.83541,1.55878,-0.283082,56
3.56642,1.96066,0.791094,58
2.77785,1.52651,-0.166114,59
3.54756,1.94868,0.934447,53
2.74847,1.50911,-0.0547307,62
3.55305,1.95008,1.086,69
2.51999,1.37908,-0.769728,9
2.80698,1.5355,0.0558477,50
2.93576,1.60529,-0.772482,7
3.33336,1.82194,0.199086,10
2.71845,1.48584,-0.602193,73
3.58258,1.95734,0.357164,61
3.37029,1.84059,-0.608217,51
3.58582,1.95749,0.501614,41
2.73928,1.49474,-0.383157,49
3.58455,1.95518,0.6467,37
2.83707,1.54746,-0.282733,56
3.57841,1.95101,0.792239,33
2.79719,1.52445,-0.166952,59
3.5629,1.94094,0.936696,23
2.76426,1.50525,-0.0549402,62
3.56493,1.94044,1.08756,30
2.52988,1.37304,-0.771281,9
2.81232,1.52569,0.0558477,48
2.94477,1.59688,-0.773382,6
3.23962,1.75604,0.19312,42
2.73052,1.48009,-0.60372,66
4.01507,2.17547,0.399522,67
3.36627,1.82317,-0.60634,58
4.03952,2.1869,0.564011,58
2.74448,1.48518,-0.383157,58
4.05526,2.19359,0.730236,45
2.84596,1.53945,-0.283082,55
4.12401,2.22985,0.911304,25
2.82007,1.52417,-0.167998,60
4.11659,2.22397,1.08021,26
2.77653,1.49939,-0.0550798,61
4.10718,2.21704,1.25061,50
2.54146,1.36786,-0.773351,10
2.83172,1.52345,0.0561269,53
2.93831,1.58014,-0.770232,7
4.03209,2.16743,0.239908,51
2.74951,1.47798,-0.606773,66
4.05598,2.17936,0.402834,90
3.35869,1.80393,-0.603837,55
4.05763,2.17842,0.565474,52
2.74265,1.47183,-0.382182,58
4.07682,2.18689,0.732739,42
2.86563,1.53654,-0.284476,59
4.14042,2.22008,0.913212,28
2.81481,1.50866,-0.16737,61
4.14837,2.22247,1.08651,30
2.8029,1.50102,-0.0554987,60
4.13874,2.21545,1.25786,56
2.54134,1.35581,-0.771798,9
2.8476,1.5192,0.0563364,41
2.94897,1.57262,-0.771582,9
4.04668,2.1571,0.240327,61
2.76184,1.47159,-0.608299,66
4.05691,2.16073,0.402137,31
3.35133,1.78419,-0.601334,51
4.04768,2.15491,0.563036,15
2.75128,1.46411,-0.38267,58
4.10187,2.18192,0.735868,45
2.8657,1.52372,-0.283953,56
4.17107,2.21687,0.918173,25
2.83267,1.50489,-0.168103,64
4.16338,2.21091,1.08831,31
2.81872,1.49685,-0.0557081,58
4.15839,2.20733,1.26148,54
2.55972,1.35416,-0.77594,9
2.82487,1.4938,0.0557779,10
2.95299,1.56089,-0.771132,10
4.03867,2.13385,0.239385,33
2.77911,1.46836,-0.61097,73
4.05914,2.14377,0.401614,12
3.3488,1.76787,-0.59977,46
4.04151,2.13265,0.561086,9
2.86373,1.51051,-0.397538,42
4.12382,2.17424,0.738371,43
2.8005,1.47654,-0.276981,63
4.2031,2.21511,0.923516,24
2.85027,1.50151,-0.168836,61
4.17796,2.2,1.09011,26
2.82773,1.48837,-0.0557779,62
4.18526,2.20197,1.26718,56
2.55075,1.33804,-0.771798,9
2.85663,1.49786,0.0563015,16
2.96187,1.55238,-0.772032,7
4.08324,2.13921,0.241583,28
2.78596,1.45956,-0.611352,75
4.01365,2.10186,0.396384,21
3.36195,1.75983,-0.601021,30
4.11225,2.15166,0.569861,48
2.9974,1.56767,-0.415331,33
4.14539,2.16716,0.740874,58
2.78445,1.45568,-0.274889,63
4.22994,2.21042,0.927713,22
2.85018,1.48878,-0.168522,57
4.20117,2.19352,1.09416,25
2.84709,1.48589,-0.0560571,62
4.2032,2.19271,1.27028,56
2.55197,1.32734,-0.770763,9
2.84587,1.47957,0.0559873,17
2.96727,1.54204,-0.772032,7
4.05347,2.10561,0.239385,12
2.80497,1.45707,-0.614405,70
4.06694,2.1117,0.400916,42
3.39087,1.75991,-0.605089,33
4.1444,2.15009,0.573273,56
3.0099,1.56085,-0.416306,33
4.17046,2.16176,0.744002,61
2.80013,1.45145,-0.275935,61
4.24984,2.20197,0.930385,24
2.83408,1.46779,-0.167266,55
4.23303,2.19138,1.10046,23
2.85759,1.4787,-0.0561618,63
4.21597,2.18069,1.27184,52
2.56003,1.3202,-0.771798,9
2.84036,1.46413,0.0557779,12
2.96918,1.52988,-0.771132,7
4.03416,2.07773,0.237815,21
2.824,1.45446,-0.617458,70
4.14514,2.13397,0.407889,56
3.56737,1.83574,-0.635437,66
4.14659,2.13289,0.572542,38
3.02769,1.55669,-0.418012,37
4.17447,2.14539,0.743377,40
2.82999,1.45442,-0.278375,57
4.2575,2.18712,0.930385,21
2.82142,1.44877,-0.166219,66
4.26145,2.18727,1.10586,25
2.8823,1.47876,-0.0565458,58
4.23731,2.17301,1.27598,45
2.56634,1.31213,-0.772316,9
2.85079,1.45694,0.0558826,13
2.9745,1.51951,-0.771132,7
4.11039,2.09977,0.241897,39
2.83955,1.44995,-0.619748,70
4.17386,2.13036,0.409981,62
3.67053,1.87265,-0.652645,59
4.15224,2.1175,0.572298,47
3.02072,1.5398,-0.416306,33
4.21852,2.15037,0.749947,37
2.93268,1.49428,-0.287963,61
4.28435,2.18205,0.934583,21
2.8407,1.44616,-0.167056,57
4.27254,2.17415,1.10676,23
2.90323,1.47736,-0.0568599,51
4.26688,2.17033,1.28271,36
2.5778,1.30666,-0.774387,7
2.86988,1.45471,0.0561618,13
2.97257,1.50611,-0.769333,7
4.13017,2.09173,0.24263,28
2.84635,1.44091,-0.620129,72
4.16883,2.10948,0.40876,55
3.69787,1.87117,-0.656399,64
4.18935,2.11895,0.576442,46
3.03644,1.53515,-0.417768,33
4.23129,2.1383,0.750886,42
2.95211,1.49122,-0.289357,57
4.31084,2.17756,0.93878,19
2.87401,1.45114,-0.168731,57
4.29364,2.16699,1.11036,23
2.86195,1.4438,-0.0559524,57
4.29513,2.16586,1.28892,38
2.57521,1.29463,-0.772316,7
2.89459,1.45456,0.0565458,13
2.98825,1.50098,-0.772032,7
4.15493,2.08699,0.243676,34
2.85813,1.43499,-0.621656,74
4.18826,2.1019,0.409981,58
3.73616,1.8742,-0.662031,59
4.20737,2.10965,0.577904,46
3.05066,1.52899,-0.418987,37
4.24719,2.12869,0.75245,39
2.95704,1.48142,-0.289357,59
4.33246,2.16953,0.941833,19
2.89156,1.44735,-0.169464,52
4.31861,2.16071,1.11486,22
2.87209,1.43698,-0.0560571,56
4.30574,2.15334,1.28995,34
2.5849,1.28822,-0.773869,9
2.90298,1.44674,0.0566156,6
2.99322,1.49106,-0.772032,7
4.18186,2.08226,0.244828,33
2.87894,1.43288,-0.62509,76
4.2152,2.09703,0.411898,57
3.75297,1.86708,-0.663908,53
4.16635,2.07182,0.571324,33
3.06282,1.52239,-0.419962,38
4.27582,2.1244,0.756204,37
2.96576,1.47286,-0.289706,60
4.35369,2.16214,0.944886,18
4.35368,2.16024,1.12206,27
2.88784,1.43228,-0.0562666,51
4.33227,2.14773,1.29565,35
2.58787,1.27788,-0.773351,7
3.02686,1.494,0.0589193,20
2.99542,1.47783,-0.771132,7
4.23245,2.08813,0.24734,33
2.8965,1.42839,-0.627762,74
4.23358,2.08685,0.412944,55
3.7796,1.86226,-0.66735,35
4.10126,2.01985,0.56133,46
3.0755,1.51467,-0.420937,42
4.30485,2.11918,0.759959,40
2.97829,1.4655,-0.290403,60
4.36725,2.14801,0.946031,19
4.37731,2.152,1.1261,26
2.92716,1.43844,-0.0569297,32
4.36266,2.14291,1.30238,34
2.59557,1.27099,-0.774387,7
3.07311,1.50417,0.0597221,18
2.99331,1.46446,-0.769333,9
4.24473,2.07672,0.247654,36
2.91709,1.42654,-0.631196,76
4.28522,2.09468,0.417302,62
3.89225,1.90174,-0.686122,31
4.22031,2.06112,0.576686,33
3.07694,1.50272,-0.420449,46
4.33493,2.11616,0.764026,45
3.00104,1.46435,-0.292146,61
4.38846,2.1404,0.949084,28
2.95144,1.43887,-0.172081,1
4.39668,2.14345,1.12925,28
2.95888,1.44187,-0.0574533,12
4.39405,2.14028,1.30962,34
2.61019,1.26744,-0.777492,8
3.09967,1.50445,0.060141,25
3.00516,1.45793,-0.771132,9
4.25555,2.06363,0.247863,36
2.92735,1.41892,-0.632341,74
4.2778,2.0735,0.415907,43
3.93764,1.90777,-0.693005,24
4.30931,2.08691,0.587898,37
3.0911,1.49629,-0.421668,50
4.35829,2.10876,0.766842,39
3.01689,1.45907,-0.293192,59
4.42772,2.14045,0.955953,24
2.95105,1.42596,-0.171767,41
4.41466,2.13318,1.13195,27
2.98911,1.4437,-0.057942,31
4.41715,2.13248,1.31428,33
2.60438,1.25284,-0.774387,7
3.08353,1.48268,0.0597221,48
3.01399,1.4486,-0.772032,7
4.28289,2.05753,0.249015,39
2.9343,1.40903,-0.632723,71
4.29615,2.06298,0.416953,61
3.95886,1.90017,-0.695508,27
4.34735,2.0857,0.592041,46
3.10372,1.48839,-0.422643,57
4.36955,2.09448,0.767468,43
3.01863,1.44628,-0.292843,61
4.46033,2.13608,0.961296,22
2.98508,1.42893,-0.173441,66
4.44354,2.12708,1.13735,28
3.00701,1.43878,-0.0581863,50
4.43191,2.11961,1.31635,30
2.60372,1.2408,-0.772834,10
3.06728,1.46105,0.0593033,46
3.01928,1.43754,-0.772032,7
4.30988,2.05202,0.250166,33
2.95339,1.40553,-0.635776,52
4.06979,1.93596,0.394293,67
3.97115,1.88819,-0.696446,31
4.36573,2.07487,0.593504,48
3.11249,1.47925,-0.42313,68
4.4036,2.09193,0.772161,43
3.03266,1.44001,-0.293715,64
4.47663,2.1247,0.963204,21
2.99185,1.41936,-0.173546,66
4.46679,2.11908,1.1414,26
3.02646,1.43513,-0.0584656,53
4.4515,2.10992,1.31998,27
2.61481,1.23546,-0.774904,11
3.23666,1.52858,0.0624796,12
3.02051,1.42586,-0.771132,7
4.35278,2.05476,0.252259,33
2.97401,1.40327,-0.63921,30
4.08159,1.925,0.394816,37
3.98632,1.87922,-0.698011,42
4.38336,2.06546,0.594966,43
3.11737,1.46892,-0.42313,68
4.43196,2.08741,0.775915,40
3.05544,1.43843,-0.295458,68
4.49431,2.11486,0.965494,25
3.00558,1.41368,-0.174069,70
4.50024,2.11669,1.14815,25
3.04387,1.43104,-0.0587099,46
4.48295,2.10665,1.32722,30
2.62589,1.23006,-0.776975,10
3.30147,1.54582,0.0636315,18
3.02169,1.41418,-0.770232,9
4.36536,2.0421,0.252573,31
2.99643,1.40172,-0.643026,13
4.38575,2.0507,0.423577,50
4.01401,1.87603,-0.701765,44
4.38838,2.05007,0.594722,39
3.11169,1.45299,-0.421668,70
4.45533,2.07945,0.778731,40
3.06742,1.43166,-0.296155,66
4.52086,2.10908,0.969691,22
3.00482,1.40117,-0.173755,59
4.51997,2.10674,1.1513,20
3.06335,1.42716,-0.0589891,17
4.50604,2.09833,1.33188,31
2.63016,1.22088,-0.776975,10
3.31229,1.53681,0.0637362,26
3.02307,1.40198,-0.769333,7
4.3634,2.02264,0.25205,31
3.49292,1.61913,-0.748353,5
4.42361,2.04962,0.42654,55
4.03846,1.87031,-0.704894,44
4.41893,2.04558,0.597891,48
3.11314,1.44045,-0.42118,66
4.47153,2.06803,0.780295,42
3.08144,1.42513,-0.297027,61
4.55137,2.10399,0.974652,21
3.01332,1.39235,-0.173965,59
4.5326,2.0934,1.15265,22
3.07921,1.42149,-0.0591986,28
4.52737,2.08907,1.33602,32
2.62563,1.20766,-0.774387,9
3.31582,1.5244,0.0637013,35
3.04566,1.39956,-0.773832,7
4.02559,1.84901,0.232162,33
3.55235,1.6309,-0.759801,5
4.45066,2.04331,0.428458,62
4.06471,1.86526,-0.708335,39
4.46574,2.04835,0.603253,52
3.11995,1.4304,-0.421424,23
4.4877,2.05652,0.78186,40
3.02143,1.38396,-0.290752,50
4.5769,2.09547,0.978469,19
3.02566,1.38462,-0.174383,56
4.56823,2.09054,1.15985,21
3.08779,1.4124,-0.0592684,34
4.54869,2.07967,1.34017,32
2.62653,1.19642,-0.773351,7
3.3141,1.50893,0.0635617,48
3.04722,1.38677,-0.772932,7
4.02506,1.83094,0.231744,31
3.59047,1.63249,-0.766671,6
4.46537,2.03028,0.429155,56
4.07511,1.85198,-0.708961,38
4.47684,2.03361,0.603741,46
4.52758,2.05475,0.787491,34
3.03011,1.37452,-0.2911,64
4.59885,2.08517,0.981521,22
3.05619,1.38506,-0.175849,58
4.59361,2.08182,1.16435,21
3.1148,1.41097,-0.0596872,35
4.56684,2.06777,1.34327,31
2.63442,1.18838,-0.774387,9
3.29773,1.48691,0.0631428,28
3.0434,1.37159,-0.770682,9
4.40688,1.98516,0.253306,27
3.59973,1.62156,-0.767434,6
4.48005,2.01718,0.429852,48
4.09088,1.84109,-0.710525,39
4.50598,2.02696,0.606666,47
4.13518,1.8593,-0.556699,48
4.5495,2.04463,0.789994,37
3.04034,1.36638,-0.291623,61
4.61327,2.07232,0.983048,24
3.1102,1.39647,-0.178675,58
4.62255,2.07455,1.16975,27
3.14915,1.41264,-0.0602457,34
4.60083,2.06287,1.35104,30
2.63502,1.1776,-0.773351,9
3.04639,1.36016,-0.770232,7
4.4685,1.99418,0.256446,34
3.59999,1.60659,-0.766289,6
4.49798,2.0064,0.430898,46
4.12254,1.83806,-0.714906,38
4.53479,2.02092,0.609591,49
4.15615,1.85131,-0.558649,26
4.58548,2.04159,0.795,40
3.0997,1.38007,-0.296852,81
4.63841,2.06418,0.986864,19
3.12235,1.38886,-0.179094,58
4.63332,2.05998,1.17065,27
3.17233,1.40976,-0.0605948,34
4.63096,2.057,1.35776,25
2.65501,1.17543,-0.77801,10
3.98829,1.76487,0.0761274,30
3.05824,1.35268,-0.772032,7
4.47909,1.98018,0.256656,34
3.60378,1.59322,-0.765907,6
4.53412,2.00357,0.433687,56
4.13797,1.82765,-0.71647,35
4.55998,2.01309,0.612028,45
3.07472,1.35676,-0.41265,33
4.59981,2.02876,0.796252,43
3.12637,1.37889,-0.298944,100
4.67253,2.05986,0.992588,19
3.14911,1.38761,-0.18035,58
4.65297,2.0493,1.17379,26
3.18821,1.40351,-0.0608042,39
4.6611,2.05093,1.36449,26
2.64672,1.16072,-0.774387,7
3.98527,1.74692,0.0759529,56
3.0683,1.34434,-0.773382,9
4.52439,1.98136,0.258854,31
3.59853,1.5759,-0.763618,6
4.56116,1.99652,0.435604,61
4.16604,1.8227,-0.720224,37
4.57971,2.00273,0.613734,33
3.08126,1.34681,-0.412893,55
4.6141,2.01585,0.797503,40
3.14029,1.37196,-0.299816,77
4.69949,2.05218,0.996786,18
3.16675,1.3822,-0.181082,75
4.69046,2.04629,1.18144,25
3.20226,1.39637,-0.0609787,55
4.68062,2.04005,1.36812,24
2.65429,1.15302,-0.775422,7
4.2995,1.8668,0.0818169,24
3.07298,1.33362,-0.773382,9
4.56208,1.97987,0.260633,33
3.28521,1.42505,-0.696071,5
4.58273,1.98692,0.436999,55
4.17963,1.81128,-0.721476,37
4.60853,1.9962,0.616659,41
3.10392,1.34448,-0.415331,54
4.65339,2.01467,0.803135,43
3.13775,1.35783,-0.299118,9
4.72103,2.042,0.999839,18
3.18806,1.37827,-0.182024,77
4.7169,2.03923,1.18639,31
3.21238,1.38812,-0.0610834,61
4.69978,2.02988,1.37174,27
2.65278,1.14192,-0.773869,9
4.52793,1.94816,0.0860404,40
3.0738,1.32188,-0.772482,9
4.58881,1.97341,0.261784,31
3.27008,1.40561,-0.691873,19
4.60759,1.97958,0.438742,51
4.20376,1.80521,-0.724605,37
4.63884,1.99108,0.619828,43
3.12296,1.34044,-0.417281,51
4.6782,2.00701,0.806263,40
4.29036,1.83974,-0.408412,15
4.74222,2.03252,1.00289,18
3.18159,1.36298,-0.181396,77
4.75229,2.03585,1.19359,26
3.22432,1.38061,-0.061223,64
4.72957,2.02417,1.37847,29
2.66011,1.13463,-0.774904,9
4.55276,1.94098,0.0863894,43
3.07458,1.31015,-0.771582,9
4.60853,1.96285,0.262517,33
3.26594,1.39035,-0.689965,33
4.63613,1.97365,0.440834,49
3.16093,1.34499,-0.544079,6
4.65089,1.97802,0.620559,37
4.71063,2.00149,0.810643,39
4.30225,1.82709,-0.408935,26
4.76555,2.02285,1.00633,19
3.17714,1.34796,-0.180873,66
4.76116,2.02002,1.19404,22
3.23648,1.37247,-0.0613627,11
4.7544,2.01518,1.38365,30
2.66425,1.12487,-0.774904,9
4.58195,1.93361,0.0868083,40
3.07398,1.2966,-0.770232,7
4.62858,1.95138,0.26325,31
3.25473,1.37151,-0.686531,22
4.67271,1.96903,0.443623,47
3.19314,1.3449,-0.548772,47
4.67275,1.96712,0.622509,39
4.28336,1.80232,-0.570592,55
4.72886,1.9888,0.812521,39
4.33831,1.82366,-0.411724,26
4.79827,2.01602,1.01167,19
4.7865,2.0101,1.19854,22
3.94215,1.6547,-0.0746265,11
4.79203,2.01045,1.39245,27
2.67014,1.11585,-0.775422,7
4.63514,1.93607,0.0876809,34
3.09669,1.29284,-0.774731,9
4.6501,1.94137,0.264087,33
3.34284,1.39491,-0.704085,1
4.69829,1.95956,0.445366,51
3.20352,1.33547,-0.549711,60
4.70192,1.95914,0.625434,39
4.32261,1.8011,-0.57498,56
4.75036,1.97836,0.815024,37
4.34649,1.80927,-0.411898,24
4.83247,2.01057,1.01739,21
4.44073,1.84668,-0.25205,40
4.82048,2.0046,1.20529,20
4.5905,1.90802,-0.0867734,22
4.80973,1.99816,1.39555,26
2.66847,1.10477,-0.773869,9
4.66371,1.92986,0.0880997,42
3.09196,1.27884,-0.772482,9
4.68789,1.93891,0.265867,31
3.24947,1.34332,-0.683478,3
4.72501,1.95234,0.447283,50
3.19515,1.31956,-0.547521,51
4.74141,1.95718,0.629821,51
4.33406,1.78903,-0.575711,55
4.78246,1.97314,0.819404,37
4.37641,1.80472,-0.414164,22
4.84818,1.99828,1.0193,24
4.49669,1.85249,-0.254876,62
4.84512,1.99603,1.20979,18
4.64118,1.91106,-0.0876111,24
4.83776,1.99102,1.40176,27
2.66675,1.09372,-0.772316,10
4.68118,1.91894,0.0883092,45
3.08897,1.26562,-0.770682,9
4.7279,1.93616,0.267751,34
3.29411,1.34833,-0.691873,1
4.75359,1.94571,0.449375,41
3.20317,1.31045,-0.548146,16
4.76625,1.94896,0.632258,51
4.36968,1.78591,-0.579611,46
4.81126,1.9654,0.823158,40
4.4122,1.80148,-0.416953,24
4.87512,1.9895,1.0235,19
3.8984,1.59011,-0.220648,26
4.88093,1.99088,1.21699,23
4.65338,1.89711,-0.0877158,24
4.86079,1.98068,1.40642,28
2.67074,1.08393,-0.772316,7
4.70672,1.90929,0.0886582,43
3.09359,1.25429,-0.770682,9
4.74792,1.92407,0.268483,33
3.57198,1.4468,-0.749116,5
4.76253,1.92903,0.449549,42
4.3505,1.76125,-0.743377,30
4.79729,1.94115,0.635427,41
4.39644,1.77807,-0.582292,37
4.84957,1.96034,0.828477,42
4.43539,1.79202,-0.418522,26
4.89877,1.97824,1.02693,19
3.91161,1.5788,-0.221067,71
4.89542,1.97589,1.21878,18
4.69368,1.89351,-0.0883441,24
4.89847,1.97514,1.41522,25
2.68725,1.07918,-0.77594,9
4.74338,1.90394,0.0892167,38
3.1054,1.24585,-0.772482,9
4.7605,1.90889,0.268797,27
3.67931,1.4746,-0.770487,12
4.81026,1.92786,0.453384,49
4.37343,1.75191,-0.746193,27
4.8228,1.93094,0.637864,43
4.40293,1.76194,-0.582292,40
4.86222,1.94475,0.829416,37
4.46598,1.78536,-0.420788,18
4.93151,1.97046,1.03228,21
3.92664,1.56816,-0.22159,21
4.92435,1.96661,1.22418,23
4.71916,1.88371,-0.0886931,22
4.9308,1.96719,1.42247,22
2.68759,1.06789,-0.774904,9
4.77262,1.8954,0.0896356,42
3.10632,1.23302,-0.771582,9
4.79717,1.90321,0.270472,34
3.67739,1.45821,-0.76896,8
4.82285,1.91242,0.453907,46
4.4037,1.74533,-0.75026,34
4.85753,1.92421,0.64152,41
4.44258,1.75894,-0.586679,33
4.89136,1.93564,0.83317,40
4.50399,1.78144,-0.423751,16
4.97704,1.96754,1.04029,21
4.73295,1.87009,-0.266704,50
4.96052,1.96,1.23138,23
4.74091,1.87228,-0.0889724,22
4.95235,1.95478,1.42661,26
2.68356,1.05708,-0.772834,9
4.78195,1.8827,0.0897054,38
3.12085,1.22808,-0.774282,9
4.81953,1.89555,0.271414,31
3.67962,1.44722,-0.768579,8
4.8285,1.89811,0.453907,39
4.43644,1.74309,-0.754953,26
4.87245,1.91342,0.642739,43
4.47919,1.75808,-0.590823,26
4.92283,1.93122,0.83755,39
3.88018,1.52219,-0.36466,7
4.99165,1.95721,1.0422,18
4.74374,1.85905,-0.267018,45
4.99716,1.95736,1.23903,20
4.75948,1.86331,-0.0892167,24
4.97612,1.94711,1.43179,26
2.69803,1.05192,-0.77594,9
4.79222,1.86744,0.0897752,40
3.1124,1.21222,-0.771132,10
4.83728,1.88306,0.272042,31
3.68099,1.43294,-0.767815,8
4.87038,1.89497,0.457219,38
4.50141,1.7505,-0.764965,1
4.88465,1.89856,0.64347,33
4.60003,1.78701,-0.605934,42
4.959,1.92546,0.842556,37
3.86319,1.49998,-0.362568,52
5.01126,1.94475,1.04487,36
4.74647,1.84104,-0.266809,41
5.02758,1.94906,1.24488,42
4.80885,1.8633,-0.0900195,28
5.01531,1.94229,1.4411,41
2.69628,1.04041,-0.774387,7
4.85468,1.87229,0.0908223,49
3.10752,1.19785,-0.768883,9
4.86619,1.87478,0.273298,33
3.71529,1.43138,-0.773921,8
4.92902,1.898,0.4621,47
4.48537,1.72627,-0.76121,8
4.90978,1.88862,0.645908,41
4.76373,1.83149,-0.626652,9
4.9952,1.91948,0.847562,32
3.86122,1.48296,-0.361871,22
5.05468,1.94132,1.0525,21
4.76965,1.8309,-0.267751,42
5.04345,1.93499,1.24713,16
4.83586,1.85438,-0.0904035,33
5.03108,1.92823,1.44369,34
2.70549,1.03259,-0.77594,9
4.88734,1.86532,0.091311,50
3.11897,1.18977,-0.770682,9
4.8783,1.85992,0.273612,27
3.70033,1.41006,-0.769724,8
4.94712,1.88418,0.463146,47
4.50274,1.71403,-0.763087,2
4.94602,1.88277,0.649807,14
4.74412,1.80497,-0.62324,21
5.04618,1.91888,0.855071,19
4.79571,1.82268,-0.448852,26
5.08011,1.92976,1.05632,18
4.80434,1.82404,-0.269321,45
5.0742,1.92548,1.25298,22
4.85539,1.84245,-0.0906478,28
5.06668,1.92162,1.45197,30
2.70366,1.02109,-0.774387,9
4.88666,1.84457,0.0911714,37
3.12696,1.17971,-0.771582,9
4.92588,1.85839,0.275915,34
3.7089,1.39852,-0.770487,8
4.95739,1.8683,0.463494,42
4.51794,1.70178,-0.764652,2
4.93431,1.85764,0.64737,21
5.09907,1.91865,0.862893,14
4.8151,1.81084,-0.450072,20
5.11438,1.92237,1.06204,18
4.8649,1.82763,-0.272356,46
5.11555,1.92077,1.26153,36
4.88051,1.83252,-0.0909968,22
5.09506,1.91206,1.45819,29
2.70178,1.00962,-0.772834,9
4.9171,1.83745,0.0916251,37
3.1345,1.1707,-0.772482,9
4.95666,1.85026,0.277276,36
3.70088,1.38076,-0.767815,6
4.96949,1.85307,0.464017,52
4.5106,1.68196,-0.762462,1
4.98881,1.85929,0.653707,24
3.81905,1.42257,-0.500396,52
5.1298,1.9098,0.86696,14
4.89235,1.82042,-0.456696,2
5.14281,1.91362,1.06662,18
4.92896,1.83306,-0.275601,45
5.14016,1.91059,1.26602,40
4.91312,1.82522,-0.0914855,22
5.11619,1.89965,1.46233,30
2.71598,1.00467,-0.77594,9
4.92536,1.82097,0.09166,38
3.13126,1.15704,-0.770682,9
4.96121,1.83226,0.277171,25
3.71097,1.37052,-0.76896,6
5.00925,1.849,0.467155,39
4.5461,1.67714,-0.767468,2
5.11633,1.8865,0.66955,54
3.83144,1.41197,-0.501371,46
5.1698,1.90417,0.872591,14
4.90054,1.80402,-0.45687,25
5.15867,1.89905,1.06853,18
4.91659,1.80895,-0.274554,41
5.17057,1.90138,1.27187,41
4.94199,1.81634,-0.0919044,22
5.14637,1.89044,1.46906,27
2.71783,0.994048,-0.775422,7
4.94108,1.8072,0.0918346,43
3.13162,1.14477,-0.769782,9
5.03136,1.83823,0.28073,24
3.73625,1.36432,-0.773158,6
4.98417,1.81902,0.464191,38
4.54479,1.65776,-0.766216,2
5.17324,1.887,0.676131,25
5.2024,1.89558,0.876972,16
4.92553,1.79372,-0.458613,27
5.19327,1.8902,1.07425,18
4.91943,1.78956,-0.274345,13
5.19033,1.88707,1.27502,38
4.97649,1.80933,-0.0924279,78
5.17654,1.88104,1.47579,24
2.72492,0.98587,-0.776457,10
4.9251,1.78092,0.0914157,14
3.13946,1.13461,-0.770682,9
4.93663,1.78314,0.275078,30
3.72437,1.34527,-0.769724,6
5.21537,1.88279,0.485109,20
4.55613,1.6439,-0.767155,2
5.2212,1.88284,0.681493,20
4.82375,1.73856,-0.629577,17
5.22418,1.88185,0.879475,14
4.92989,1.77584,-0.458439,19
5.2257,1.88137,1.0796,18
4.9482,1.78049,-0.275601,53
5.21889,1.87686,1.28042,36
4.9605,1.78296,-0.0920091,18
5.21794,1.87446,1.48562,27
2.71743,0.972446,-0.773351,7
4.94258,1.76776,0.0916251,25
3.14523,1.1243,-0.771132,7
5.21554,1.86333,0.290255,12
3.73274,1.33358,-0.770487,8
5.25006,1.87463,0.487724,21
3.80835,1.35909,-0.640443,39
5.24644,1.87127,0.683931,18
4.90833,1.74971,-0.639814,10
5.2456,1.86891,0.881978,14
4.94357,1.7613,-0.459136,27
5.26182,1.87365,1.0857,16
4.93557,1.7565,-0.274554,19
5.2456,1.86581,1.28537,29
4.93278,1.75358,-0.0913808,18
5.2372,1.86076,1.48924,28
2.72627,0.964888,-0.774904,9
5.15987,1.82518,0.0955345,9
3.16016,1.11721,-0.773832,9
5.27065,1.86333,0.292977,15
3.73737,1.32054,-0.770487,8
5.27724,1.86359,0.489641,23
3.79445,1.33921,-0.637314,56
5.29038,1.86615,0.688806,14
4.80956,1.6956,-0.626165,11
5.28344,1.86267,0.887296,14
4.90834,1.72946,-0.455302,38
5.28315,1.86049,1.08876,18
5.00384,1.76115,-0.278009,23
5.26863,1.85331,1.28942,19
4.9065,1.72593,-0.0907874,43
5.26156,1.84979,1.49442,25
2.7278,0.954727,-0.774387,7
5.28858,1.851,0.0978033,24
3.15649,1.10415,-0.772032,7
5.30729,1.85547,0.294651,19
3.74938,1.31007,-0.772013,10
5.31945,1.85763,0.492953,32
3.79887,1.32662,-0.637314,13
5.30591,1.85187,0.690024,20
4.8995,1.70907,-0.637133,39
5.31603,1.85332,0.891677,16
4.99713,1.74117,-0.462971,25
5.30597,1.84878,1.09219,18
5.07001,1.76556,-0.281358,6
5.30972,1.848,1.29797,18
5.24868,1.82573,-0.0970005,50
5.29901,1.8422,1.50322,26
2.7492,0.951998,-0.779563,8
5.30446,1.83579,0.0979778,31
3.16033,1.09313,-0.772032,7
5.31185,1.83628,0.294547,28
3.75927,1.29956,-0.773158,14
5.34629,1.84714,0.49487,36
4.57649,1.58028,-0.766842,2
5.34424,1.84435,0.694168,31
5.00678,1.7269,-0.650295,52
5.35421,1.8457,0.896995,16
4.95044,1.70554,-0.458091,29
5.33838,1.8392,1.09753,18
4.99872,1.72119,-0.277067,37
5.32719,1.83326,1.30067,18
5.26637,1.8113,-0.0972099,52
5.33464,1.83374,1.5115,26
2.74171,0.938163,-0.776457,8
5.2938,1.81144,0.0976637,51
3.16412,1.08209,-0.772032,7
5.32389,1.81966,0.294861,72
3.75657,1.28323,-0.771632,12
5.35303,1.82753,0.49487,59
4.60095,1.56988,-0.769971,4
5.35065,1.82568,0.694168,49
4.9301,1.68123,-0.63957,47
5.38306,1.83464,0.90075,14
4.98842,1.69917,-0.461054,25
5.37854,1.83101,1.1044,18
5.17516,1.76076,-0.286487,47
5.35601,1.82125,1.30607,18
5.21586,1.77359,-0.0961628,66
5.37576,1.82692,1.52134,23
2.7468,0.929206,-0.776975,10
5.26442,1.77986,0.0970005,52
3.17545,1.07298,-0.773832,7
5.31697,1.79659,0.294128,78
3.77033,1.27325,-0.77354,56
5.33484,1.80055,0.492604,67
4.58955,1.54812,-0.767155,4
5.34414,1.80162,0.692462,65
4.93594,1.66401,-0.63957,28
5.40441,1.82088,0.903253,14
5.08307,1.71163,-0.469247,44
5.41653,1.82286,1.11089,18
5.18885,1.74523,-0.286906,48
5.39158,1.81342,1.31326,16
5.20307,1.74901,-0.0958137,45
5.39309,1.81183,1.52444,21
2.74254,0.917639,-0.774904,9
5.24184,1.75288,0.0964769,56
3.17899,1.06244,-0.773832,7
5.32668,1.78022,0.294337,72
3.76522,1.25763,-0.771632,30
5.32566,1.77781,0.49121,59
4.5778,1.52727,-0.764339,2
5.35573,1.78577,0.693193,52
5.0902,1.69723,-0.658826,71
5.44602,1.81482,0.909197,14
5.07548,1.69036,-0.468026,53
5.43931,1.81047,1.11432,18
5.22493,1.7381,-0.288581,59
5.43269,1.80722,1.32181,20
5.24679,1.74436,-0.0965118,58
5.4229,1.80186,1.53117,21
2.7529,0.910968,-0.776975,10
5.26851,1.74239,0.0968609,74
3.1751,1.04945,-0.772032,9
5.32528,1.75911,0.293919,66
3.76005,1.24206,-0.769724,6
5.32774,1.75889,0.490861,59
4.6166,1.52322,-0.769971,2
5.339,1.76054,0.690268,51
5.07159,1.67138,-0.655657,55
5.48047,1.80507,0.91389,14
5.07,1.66889,-0.46698,53
5.46952,1.80041,1.11929,18
5.25154,1.72763,-0.289732,54
5.46674,1.79737,1.32856,15
5.28324,1.73602,-0.0970703,100
5.45302,1.79075,1.5379,23
2.75806,0.901472,-0.777492,8
5.25745,1.7184,0.0965467,56
3.18245,1.03957,-0.772932,7
5.33519,1.74175,0.294128,63
3.76831,1.22949,-0.770487,6
5.36256,1.74861,0.493476,82
4.62216,1.50629,-0.769971,2
5.34511,1.74189,0.690268,51
5.0604,1.64813,-0.653463,57
5.49988,1.7902,0.91608,14
5.06822,1.64872,-0.466283,53
5.50223,1.78884,1.12463,16
5.28443,1.71701,-0.291197,54
5.48812,1.78214,1.33216,13
5.30258,1.72189,-0.0973146,82
5.4868,1.78065,1.54567,21
2.77222,0.895401,-0.780598,8
5.32081,1.71755,0.0975939,83
3.18624,1.0279,-0.772932,7
5.33773,1.72096,0.293919,58
3.75202,1.2097,-0.766289,6
5.38001,1.73355,0.494522,70
4.60294,1.48228,-0.765903,2
5.38359,1.73263,0.694412,59
5.05696,1.62653,-0.652245,63
5.53274,1.7785,0.920461,14
5.06635,1.62858,-0.465586,53
5.53834,1.77923,1.13073,18
5.21813,1.67536,-0.28722,54
5.52956,1.77428,1.34071,15
5.2822,1.6939,-0.0968259,42
5.52456,1.77055,1.55447,12
2.7606,0.881021,-0.776457,10
5.32105,1.69714,0.0974891,68
3.19166,1.01736,-0.773382,7
5.32848,1.69746,0.293081,61
3.77493,1.20256,-0.770105,6
5.36135,1.7069,0.492256,66
4.63821,1.47578,-0.770909,2
5.3896,1.71383,0.694412,47
5.05883,1.60767,-0.651757,65
5.56715,1.76814,0.925154,14
5.04542,1.60244,-0.463146,53
5.58007,1.77118,1.13798,18
5.22013,1.65592,-0.28701,53
5.56544,1.76439,1.34791,16
5.26902,1.66941,-0.0964769,52
5.55834,1.76001,1.56223,13
2.76366,0.871378,-0.776457,8
5.28689,1.66594,0.0967561,49
3.20449,1.00914,-0.775631,7
5.35152,1.68425,0.294023,76
3.77723,1.18878,-0.769724,6
5.35397,1.684,0.491035,63
4.62637,1.45425,-0.768093,2
5.39555,1.695,0.694412,49
5.05683,1.58762,-0.650782,66
5.60156,1.75757,0.929847,14
5.03578,1.58005,-0.461751,53
5.60683,1.75815,1.14218,18
5.1992,1.62933,-0.285545,40
5.5976,1.75311,1.35421,13
5.23855,1.63966,-0.0958137,54
5.59026,1.74867,1.56948,13
2.763,0.860578,-0.775422,7
5.29649,1.64866,0.0968259,46
3.20613,0.99737,-0.775181,7
5.37263,1.6703,0.294861,58
3.78323,1.17617,-0.770105,6
5.3484,1.66175,0.48999,52
4.6333,1.43868,-0.768406,2
5.45452,1.69263,0.701236,46
5.04717,1.56526,-0.648832,65
5.64917,1.75087,0.93673,14
5.03555,1.56069,-0.461228,55
5.62793,1.74321,1.14524,16
5.05413,1.56452,-0.277276,48
5.64464,1.74623,1.3641,15
5.22705,1.61604,-0.0954996,35
5.63324,1.74055,1.57983,13
2.77521,0.853767,-0.77801,10
5.25634,1.61606,0.0959882,55
3.20028,0.983312,-0.772932,7
5.31542,1.63219,0.291407,61
3.79107,1.16411,-0.770868,6
5.38845,1.65359,0.493127,77
4.65341,1.42713,-0.770909,2
5.52113,1.69219,0.709036,45
5.03363,1.54182,-0.646395,68
5.68736,1.74097,0.942048,14
5.02954,1.53961,-0.460182,55
5.67529,1.73619,1.15363,16
5.0672,1.5492,-0.277695,61
5.66934,1.73221,1.3686,13
5.12556,1.56508,-0.0935449,45
5.66331,1.7282,1.58656,12
2.78188,0.845197,-0.779045,10
5.25047,1.59422,0.0957788,51
3.20928,0.973832,-0.774282,7
5.29624,1.60609,0.290046,48
3.7782,1.14574,-0.767434,6
5.39038,1.63361,0.492779,74
4.6508,1.40859,-0.769658,2
5.6087,1.69764,0.719517,25
5.02378,1.51964,-0.644445,66
5.70664,1.72511,0.944239,16
5.03107,1.52089,-0.459834,55
5.71514,1.72659,1.1605,16
5.03625,1.52053,-0.275706,52
5.69961,1.71973,1.37445,13
5.10802,1.54025,-0.093126,50
5.71,1.72069,1.59795,15
2.76986,0.831526,-0.774904,9
5.2768,1.58312,0.0961628,49
3.2237,0.966542,-0.776981,6
5.31875,1.59368,0.290988,43
3.79702,1.13772,-0.770487,8
5.36905,1.60773,0.490338,65
4.66112,1.39486,-0.770596,2
5.74553,1.71828,0.736335,19
5.02118,1.5007,-0.64347,65
5.73883,1.71409,0.948619,14
5.00554,1.49507,-0.457045,55
5.75094,1.71661,1.16661,16
5.02595,1.49926,-0.274868,49
5.73889,1.71084,1.38255,13
5.09968,1.51931,-0.0928817,41
5.73789,1.70836,1.60416,14
2.77089,0.821303,-0.774387,10
5.32064,1.57605,0.0968609,57
3.22331,0.954179,-0.776081,6
5.35684,1.58474,0.292767,39
3.78591,1.12,-0.767434,6
5.37463,1.58898,0.490338,51
4.66785,1.37914,-0.770909,4
5.79718,1.7117,0.742184,37
5.02258,1.48204,-0.642983,71
5.80351,1.71137,0.958318,40
5.00882,1.47702,-0.45687,63
5.79079,1.70652,1.17348,42
4.36059,1.28422,-0.238233,13
5.79905,1.70675,1.3956,29
5.08769,1.49642,-0.0925676,48
5.76791,1.6954,1.61089,19
2.78116,0.813795,-0.776457,11
5.33762,1.56083,0.0970703,52
3.21353,0.939094,-0.772932,7
5.3911,1.57442,0.294337,34
3.79357,1.10788,-0.768197,6
5.42795,1.58416,0.494696,56
4.65368,1.35731,-0.76778,2
5.79169,1.68812,0.740722,47
5.0201,1.46228,-0.642008,82
5.80565,1.69,0.957692,43
5.00463,1.45587,-0.455999,72
5.78352,1.68246,1.1708,54
5.06314,1.47194,-0.276334,47
5.80122,1.68541,1.3947,47
5.08712,1.47698,-0.0924629,41
5.77194,1.67472,1.61037,29
2.78969,0.805203,-0.77801,10
5.30077,1.52999,0.0963024,48
3.22241,0.929491,-0.774282,6
5.41575,1.56113,0.295384,36
3.79572,1.09342,-0.767815,6
5.46627,1.57363,0.497659,55
4.67571,1.34515,-0.770596,2
5.79373,1.6668,0.740234,31
5.03853,1.44858,-0.643714,44
5.80203,1.66699,0.956128,19
5.04032,1.44719,-0.458788,27
5.78021,1.65854,1.1689,24
5.1261,1.46989,-0.279474,54
5.76615,1.65233,1.3848,18
5.12877,1.46968,-0.093126,45
5.76661,1.65137,1.60727,22
2.80735,0.799694,-0.782151,10
5.2948,1.50727,0.0960929,57
3.23704,0.920874,-0.776981,6
5.4541,1.55055,0.297164,39
3.80706,1.08231,-0.769342,6
5.50048,1.5627,0.500274,50
4.68037,1.32883,-0.770596,2
5.77879,1.63959,0.737553,22
5.06672,1.43661,-0.646639,44
5.78339,1.63872,0.95206,17
5.07026,1.43665,-0.461054,21
5.78407,1.63782,1.16851,24
5.15042,1.45742,-0.280521,37
5.76626,1.6306,1.38345,24
5.15336,1.45631,-0.0934751,48
5.76333,1.6276,1.60468,22
2.78781,0.783617,-0.77594,9
5.30773,1.49094,0.0962326,48
3.2346,0.907988,-0.775631,7
5.50178,1.54337,0.299466,36
3.80137,1.06637,-0.767434,8
5.53276,1.55102,0.502714,50
4.69259,1.31461,-0.771848,2
5.77301,1.6162,0.736091,23
5.1042,1.428,-0.650782,45
5.76625,1.61214,0.948306,16
5.18846,1.4506,-0.471338,2
5.7803,1.61498,1.16661,21
5.05737,1.41204,-0.275182,7
5.75502,1.60575,1.3794,23
5.17575,1.44315,-0.0937892,48
5.73734,1.59866,1.59588,20
2.79052,0.773882,-0.77594,9
5.27629,1.46225,0.0955694,48
3.23587,0.896172,-0.775181,6
5.54152,1.53472,0.30135,39
3.82399,1.05833,-0.77125,8
5.57463,1.54179,0.506026,55
4.67811,1.29296,-0.768719,2
5.77096,1.59393,0.735116,24
5.1436,1.41968,-0.65517,44
5.76394,1.5909,0.947054,17
5.12434,1.41341,-0.465063,23
5.77076,1.59062,1.16355,24
5.09885,1.40446,-0.277171,11
5.75307,1.58358,1.3776,23
5.21521,1.43553,-0.0944175,48
5.73329,1.57706,1.59329,21
2.79321,0.764137,-0.77594,9
5.26954,1.44159,0.09536,50
3.23131,0.88338,-0.773382,6
5.58537,1.52589,0.303444,37
3.81819,1.04239,-0.769342,8
5.62034,1.53333,0.509687,56
4.69,1.27952,-0.769971,2
5.75324,1.56851,0.732191,23
5.18084,1.41149,-0.659313,42
5.76946,1.57077,0.947054,17
5.16385,1.40492,-0.468201,23
5.75517,1.5658,1.15936,24
5.12854,1.39436,-0.278532,14
5.74701,1.56143,1.3749,23
5.24914,1.42518,-0.0949411,46
5.73317,1.55552,1.59174,22
2.79759,0.755373,-0.776457,11
5.26296,1.42006,0.0951505,55
3.2419,0.874125,-0.775181,6
5.60416,1.51002,0.304177,36
3.83489,1.0333,-0.772013,10
5.66195,1.52453,0.512999,55
4.70206,1.26519,-0.771222,4
5.74717,1.54533,0.730729,25
5.19532,1.39597,-0.660532,16
5.76728,1.54857,0.945803,16
5.20312,1.39709,-0.471338,25
5.74922,1.54265,1.15707,25
5.16424,1.38472,-0.280207,13
5.7336,1.53631,1.3704,22
5.29078,1.41667,-0.0956043,50
5.72177,1.531,1.58708,21
2.80768,0.74759,-0.778528,11
5.2872,1.40682,0.0954996,51
3.24116,0.861803,-0.774282,6
5.64029,1.49866,0.305851,33
3.8252,1.01638,-0.769342,12
5.70382,1.51447,0.516311,52
4.68927,1.24421,-0.768406,2
5.7487,1.52424,0.730241,27
5.24046,1.3885,-0.66565,6
5.73446,1.51832,0.939546,17
5.24841,1.38963,-0.474999,21
5.75077,1.52157,1.1563,27
5.21345,1.37843,-0.282614,12
5.72574,1.51281,1.36725,25
5.32663,1.40636,-0.0961628,52
5.72147,1.50954,1.58553,20
2.80467,0.736315,-0.776975,10
5.32497,1.39698,0.0960929,49
3.24792,0.851471,-0.775181,6
5.68799,1.49009,0.308154,33
3.80593,0.997047,-0.764763,6
5.72835,1.4996,0.518054,58
5.73862,1.50014,0.728291,27
5.27985,1.37923,-0.670038,25
5.71679,1.49231,0.935791,19
5.26672,1.37482,-0.476219,19
5.74465,1.49851,1.15401,24
5.26075,1.3713,-0.284917,12
5.71779,1.48937,1.3641,26
5.34118,1.39028,-0.0963373,48
5.70614,1.48421,1.57983,21
2.796,0.723616,-0.773869,9
5.34723,1.38289,0.0964071,45
3.25842,0.84208,-0.776981,6
5.73763,1.48172,0.310562,21
3.8322,0.989648,-0.769342,4
5.72969,1.4786,0.517705,29
4.70932,1.21441,-0.770283,4
5.7419,1.47961,0.728048,28
5.31731,1.36921,-0.674181,36
5.72579,1.47333,0.936417,19
5.30236,1.36437,-0.479008,21
5.73273,1.47405,1.15058,28
5.3216,1.36735,-0.287952,17
5.70785,1.46553,1.3605,26
5.36731,1.37709,-0.0967212,46
5.70193,1.46189,1.57724,19
2.79851,0.713851,-0.773869,10
5.38109,1.37163,0.0969307,42
3.25757,0.829738,-0.776081,6
5.73696,1.4602,0.310248,19
3.83753,0.976748,-0.769724,8
5.73288,1.4581,0.517531,31
4.70013,1.19455,-0.768093,2
5.72586,1.45418,0.725366,25
5.35476,1.35895,-0.678325,37
5.72324,1.45139,0.935165,19
5.33799,1.35369,-0.481797,21
5.7112,1.44728,1.14524,27
5.34377,1.35318,-0.288895,16
5.70915,1.44464,1.3596,24
5.39729,1.36472,-0.097175,36
5.70138,1.44055,1.57569,21
2.81222,0.706904,-0.776975,10
5.71362,1.43516,0.10283,24
3.2491,0.815514,-0.773382,6
5.72265,1.43531,0.309201,18
3.82759,0.960004,-0.767052,6
5.73214,1.43663,0.517008,27
4.71385,1.18054,-0.769658,2
5.70202,1.42696,0.72171,28
5.37488,1.3441,-0.680275,36
5.71868,1.42901,0.933601,19
5.37555,1.34326,-0.48476,21
5.7086,1.42543,1.14371,27
5.38334,1.34322,-0.290779,19
5.69904,1.42093,1.356,23
5.44471,1.35651,-0.0979429,28
5.69888,1.41878,1.57362,21
2.8128,0.696618,-0.776457,11
5.71277,1.41377,0.102725,23
3.26328,0.806977,-0.776081,6
5.70024,1.40961,0.307735,19
3.8271,0.945695,-0.766289,4
5.73132,1.41517,0.516485,31
4.73712,1.16881,-0.772786,5
5.69733,1.40467,0.720492,27
5.41231,1.3334,-0.684418,32
5.71572,1.40815,0.93235,19
5.4247,1.33545,-0.488769,20
5.70973,1.40456,1.14295,28
5.43842,1.33681,-0.2935,30
5.68882,1.39731,1.35241,29
5.48996,1.34846,-0.0986759,38
5.69605,1.39803,1.57155,22
2.81709,0.687254,-0.776975,10
5.70577,1.39197,0.102515,25
3.26972,0.797073,-0.776981,6
5.70124,1.38876,0.307526,19
3.84373,0.935579,-0.76896,4
5.71493,1.38998,0.514567,30
4.74481,1.15403,-0.773412,5
5.69424,1.3839,0.719517,27
5.46686,1.32762,-0.690755,26
5.69564,1.38213,0.928282,19
5.46031,1.32402,-0.491558,20
5.701,1.38238,1.14027,25
5.47389,1.32629,-0.295175,35
5.66501,1.37156,1.34566,22
5.52573,1.33682,-0.0992344,38
5.67085,1.37087,1.56327,22
2.81748,0.677457,-0.776457,11
5.6892,1.36691,0.102131,27
3.27628,0.786564,-0.777881,6
5.70023,1.36745,0.307212,21
3.86781,0.927868,-0.773158,4
5.69625,1.36545,0.512476,30
4.73152,1.13332,-0.770596,8
5.69517,1.36309,0.719029,27
5.50235,1.31592,-0.694655,28
5.69275,1.3604,0.927031,17
5.50365,1.3142,-0.495045,20
5.68287,1.357,1.1357,27
5.50568,1.31367,-0.29664,41
5.68114,1.35449,1.34836,27
5.57705,1.32864,-0.100072,28
5.66432,1.34839,1.56016,23
2.81994,0.667126,-0.776457,11
5.68616,1.3452,0.101992,28
3.279,0.775124,-0.777881,6
5.70497,1.34755,0.307212,16
3.85017,0.908724,-0.76896,4
5.6954,1.34319,0.511953,33
4.73372,1.11552,-0.770283,8
5.68057,1.33865,0.716592,25
5.54748,1.30626,-0.699774,34
5.68593,1.33781,0.925154,17
5.53924,1.30228,-0.497834,20
5.67634,1.33347,1.13341,25
5.54546,1.3017,-0.298524,41
5.67848,1.33188,1.34656,27
5.66731,1.32926,-0.101608,22
5.65959,1.3264,1.55757,22
2.82601,0.658155,-0.777492,11
5.68521,1.32299,0.101887,30
3.27423,0.761334,-0.776081,6
5.67656,1.31993,0.305433,18
3.86862,0.898834,-0.772013,4
5.68841,1.3206,0.510907,33
4.74143,1.09988,-0.770909,8
5.66804,1.31378,0.714398,28
5.57544,1.29129,-0.702699,36
5.68864,1.31751,0.924841,19
5.57869,1.29102,-0.500971,20
5.66949,1.31099,1.13112,27
5.57916,1.28908,-0.300094,39
5.65651,1.30591,1.34026,31
5.6953,1.31486,-0.102027,20
5.6623,1.30621,1.55706,23
2.82829,0.648286,-0.777492,11
5.68371,1.30279,0.101782,34
3.28053,0.751343,-0.776981,6
5.66751,1.29699,0.3047,22
3.85451,0.881385,-0.768579,4
5.69687,1.30162,0.511256,42
4.75468,1.08635,-0.772473,8
5.66656,1.29365,0.713667,45
5.60292,1.2781,-0.705624,33
5.68357,1.29545,0.923276,35
5.59871,1.27508,-0.502366,18
5.67189,1.29175,1.13073,45
5.6243,1.27987,-0.302293,33
5.64751,1.28412,1.33711,45
5.67255,1.28877,-0.101538,26
5.65929,1.28472,1.55498,31
2.82101,0.636775,-0.774904,10
5.66287,1.27722,0.101329,48
3.27933,0.739031,-0.776081,6
5.61355,1.26404,0.30156,27
3.85741,0.868597,-0.768579,4
5.16273,1.16158,0.462971,9
4.74302,1.06628,-0.769971,8
5.66717,1.27299,0.713179,51
5.14249,1.15419,-0.647126,81
5.66493,1.27042,0.919522,37
5.12077,1.14838,-0.459136,25
5.67636,1.27194,1.13073,39
5.14928,1.15289,-0.276543,35
5.64815,1.26355,1.33621,30
5.09546,1.13897,-0.0911365,26
5.65054,1.26201,1.55136,38
2.81944,0.626089,-0.773869,10
5.10505,1.1327,0.0912761,63
3.2857,0.728422,-0.776981,6
5.12068,1.13429,0.274868,22
3.87384,0.858101,-0.77125,4
5.0831,1.12504,0.455476,45
4.7525,1.05099,-0.770909,8
5.69483,1.25835,0.716104,22
5.13873,1.13453,-0.646151,95
5.68862,1.25489,0.922651,13
5.12669,1.13093,-0.459311,21
5.68652,1.25338,1.13188,13
5.14156,1.13233,-0.275915,33
5.68869,1.25178,1.34476,13
5.10722,1.1229,-0.0912761,20
5.68133,1.24808,1.55861,13
2.82727,0.617479,-0.775422,10
5.09725,1.11231,0.0910667,70
3.28061,0.715288,-0.775181,6
5.10314,1.11173,0.273717,21
3.88064,0.845409,-0.772013,4
5.10452,1.1111,0.457045,72
4.75228,1.03356,-0.770283,5
5.72441,1.24394,0.719273,13
5.14654,1.11742,-0.646639,72
5.7393,1.24508,0.930159,13
5.12282,1.11134,-0.458613,23
5.73115,1.24226,1.13989,15
5.14744,1.1148,-0.27602,41
5.72921,1.23975,1.35331,12
5.11111,1.10506,-0.0912761,22
5.73475,1.23885,1.57207,13
2.83885,0.609634,-0.77801,11
5.10111,1.09452,0.0910667,72
3.27546,0.702198,-0.773382,7
5.09722,1.09182,0.273194,21
3.89317,0.833913,-0.773921,4
5.11421,1.09453,0.457568,82
4.76359,1.01862,-0.771535,2
5.7559,1.22975,0.722685,14
5.12905,1.0949,-0.643958,59
5.79384,1.23575,0.938294,13
5.12472,1.09303,-0.458439,23
5.77194,1.23002,1.14714,13
5.12786,1.09183,-0.274764,40
5.77162,1.22785,1.3623,12
5.10711,1.08555,-0.0911365,22
5.77683,1.22685,1.58242,12
2.83718,0.598923,-0.776975,10
5.10098,1.07588,0.0909968,72
3.28552,0.692367,-0.775181,6
5.09319,1.07238,0.272775,21
3.88069,0.817083,-0.770868,4
5.118,1.07667,0.457568,94
4.76325,1.00117,-0.770909,4
5.79706,1.21741,0.727316,13
5.11924,1.07413,-0.642251,59
5.81745,1.21957,0.941423,13
5.1402,1.07759,-0.459485,23
5.82615,1.22033,1.15707,13
5.13164,1.07393,-0.274764,43
5.81212,1.21527,1.37085,12
5.09717,1.06485,-0.0908921,22
5.80755,1.21221,1.58967,10
2.82034,0.585091,-0.771798,9
5.10471,1.05806,0.0909968,70
3.29173,0.681686,-0.776081,6
5.09885,1.05499,0.27288,22
3.87967,0.802735,-0.770105,4
5.10612,1.05557,0.456173,85
4.78219,0.987735,-0.773412,4
5.84794,1.20679,0.733166,13
5.13268,1.05826,-0.64347,61
5.84876,1.20484,0.945803,13
5.12051,1.05482,-0.457393,29
5.87653,1.20949,1.16622,13
5.15687,1.06043,-0.275915,59
5.8545,1.20282,1.37985,10
5.09693,1.04625,-0.0908223,30
5.85717,1.20124,1.60209,12
2.82994,0.576788,-0.773869,9
5.09661,1.03784,0.0907874,74
3.29409,0.670191,-0.776081,6
5.09468,1.0356,0.272461,39
3.87091,0.786842,-0.767815,4
5.10196,1.03615,0.455476,82
4.76625,0.967107,-0.770283,5
5.89881,1.19584,0.739016,12
5.12856,1.03876,-0.642495,80
5.89552,1.19303,0.952686,11
5.11635,1.03536,-0.456696,29
5.90381,1.19363,1.1708,15
5.14292,1.03886,-0.274973,54
5.90069,1.19086,1.38975,13
5.09663,1.02766,-0.0907525,61
5.88784,1.18613,1.60934,13
2.83193,0.566905,-0.773869,10
5.09236,1.01848,0.0906478,72
3.29259,0.657925,-0.775181,6
5.1061,1.01937,0.27288,43
3.90251,0.779091,-0.77354,10
5.1075,1.01872,0.45565,99
4.7696,0.950465,-0.770283,4
5.93799,1.18222,0.743403,14
5.13216,1.02085,-0.642495,82
5.95971,1.18438,0.962385,16
5.11798,1.0171,-0.456522,34
5.9503,1.18143,1.1792,21
5.13085,1.0178,-0.274136,54
5.97171,1.18352,1.40549,24
5.09627,1.00909,-0.0906827,61
5.94311,1.17569,1.62331,19
2.84527,0.559251,-0.776975,10
5.09588,1.0007,0.0906478,68
3.28722,0.644927,-0.773382,6
5.10357,1.00128,0.272566,51
3.91291,0.766974,-0.775066,6
5.10712,1.00013,0.455302,84
4.78258,0.935705,-0.771848,4
5.12772,1.0023,-0.64152,63
6.00626,1.17294,0.969268,48
5.11955,0.998849,-0.456347,29
5.96788,1.16328,1.18187,40
5.13045,0.999117,-0.273926,54
5.97369,1.16333,1.40504,45
5.11529,0.995239,-0.0909619,45
5.96405,1.15929,1.62797,34
2.84331,0.549079,-0.77594,9
5.1031,0.984551,0.0907176,72
3.29699,0.635498,-0.775181,6
5.10098,0.983218,0.272252,37
3.89423,0.749909,-0.770868,6
5.10453,0.982056,0.454779,79
4.79536,0.921705,-0.773412,4
5.97124,1.14664,0.746572,1
5.12322,0.983794,-0.640545,76
5.98684,1.14855,0.965514,32
5.13457,0.984118,-0.457393,25
5.97749,1.14459,1.18302,39
5.12981,0.981349,-0.273717,40
5.95072,1.13839,1.39875,22
5.10874,0.976394,-0.0907874,24
5.96027,1.13806,1.6259,20
2.83753,0.53821,-0.773869,9
5.1083,0.967994,0.0907525,77
3.30291,0.625286,-0.776081,6
5.10045,0.964665,0.272042,31
3.87933,0.73371,-0.767434,6
5.10385,0.964382,0.45443,85
4.78868,0.903965,-0.771848,2
5.97501,1.12683,0.746572,9
5.12272,0.965171,-0.640058,78
5.96751,1.12326,0.961759,19
5.12802,0.965242,-0.456522,25
5.97353,1.12331,1.18149,30
5.13696,0.965069,-0.273926,42
5.95849,1.11833,1.39965,25
5.09443,0.955237,-0.0904733,24
5.94332,1.11334,1.62021,19
2.82419,0.525474,-0.769728,9
5.09396,0.946869,0.0904384,72
3.30507,0.613753,-0.776081,6
5.10183,0.94649,0.271938,31
3.90889,0.725177,-0.772776,6
5.09739,0.944746,0.453559,87
4.74713,0.878973,-0.764652,4
5.98476,1.10705,0.747303,30
5.13387,0.948727,-0.641033,80
5.9714,1.10242,0.961759,19
5.12352,0.94589,-0.455824,25
5.96004,1.09925,1.17805,31
5.14423,0.947856,-0.274136,40
5.96236,1.09752,1.39965,31
5.1056,0.938897,-0.0906129,22
5.93957,1.09119,1.61814,22
2.83741,0.517692,-0.772834,9
5.08936,0.927649,0.0902987,74
3.29953,0.600815,-0.774282,6
5.10903,0.929389,0.272147,30
3.90754,0.710824,-0.772013,6
5.10457,0.927661,0.453907,87
4.74434,0.861337,-0.763713,9
5.95539,1.08013,0.743159,18
5.13324,0.930094,-0.640545,76
5.96355,1.07946,0.959882,19
5.12695,0.927103,-0.455824,25
5.94839,1.07564,1.175,31
5.13178,0.927055,-0.273298,40
5.94122,1.07221,1.3938,26
5.11081,0.921422,-0.0906478,24
5.93954,1.06976,1.6171,23
2.8431,0.507969,-0.773869,9
5.09651,0.91058,0.0903686,72
3.29393,0.587925,-0.772482,6
5.09651,0.908746,0.27131,30
3.91205,0.696843,-0.772395,4
5.12167,0.911387,0.455127,94
4.74941,0.844289,-0.764026,17
5.25356,0.933912,0.65517,7
5.12473,0.910086,-0.639083,66
5.96533,1.05829,0.959569,21
5.11838,0.907116,-0.454779,27
5.94263,1.05212,1.17309,31
5.12531,0.906497,-0.272775,41
5.92592,1.04703,1.3893,26
5.11006,0.902882,-0.090578,26
5.93182,1.04701,1.614,22
2.85627,0.50004,-0.776975,10
5.10375,0.892584,0.0904384,72
3.30374,0.577189,-0.774282,6
5.10178,0.890402,0.271414,36
3.91059,0.682507,-0.771632,4
5.10127,0.889398,0.453036,79
4.76401,0.829738,-0.765903,31
5.25695,0.914649,0.65517,13
5.11238,0.888579,-0.637133,80
5.94776,1.0327,0.956128,21
5.12152,0.889243,-0.454779,34
5.93659,1.0297,1.17119,30
5.14419,0.891332,-0.273612,69
5.91418,1.02368,1.3857,26
5.09757,0.88142,-0.0902987,45
5.9261,1.02362,1.61141,24
2.84657,0.488108,-0.773869,9
5.1088,0.8751,0.0904733,76
3.3115,0.566642,-0.775631,7
5.10879,0.873262,0.271624,49
3.89747,0.666206,-0.768579,4
5.10238,0.871249,0.452861,87
4.83113,0.824063,-0.776228,8
5.2562,0.895627,0.654682,20
5.11937,0.871393,-0.63762,82
5.92991,1.00829,0.952686,21
5.11477,0.869689,-0.453907,44
5.93434,1.00798,1.17004,34
5.1453,0.873034,-0.273508,59
5.91387,1.00238,1.3848,24
5.09667,0.862954,-0.0902289,69
5.90868,0.99938,1.60571,23
2.84064,0.476888,-0.771798,9
5.09999,0.855278,0.0902639,79
3.31538,0.5554,-0.776081,6
5.11378,0.855752,0.271728,52
3.8959,0.651949,-0.767815,4
5.10342,0.853106,0.452687,85
4.8106,0.803294,-0.772473,9
5.26713,0.878579,0.655657,23
5.13021,0.854824,-0.638595,69
5.93534,0.987914,0.952999,19
5.12367,0.852815,-0.45443,34
