# .PCD v.7 - Point Cloud Data file format
VERSION .7
FIELDS x y z intensity normals observationDirections
SIZE 4 4 4 4 4 4
TYPE F F F F F F
COUNT 1 1 1 1 3 3
WIDTH 572
HEIGHT 1
POINTS 572
DATA ascii
4.2184 -4.49529 1.19828 27 0.128363 -0.139366 -0.981886 -4.2184 4.49529 -1.19828
4.21415 -4.49232 -0.322808 23 0.0344804 -0.0382136 0.998675 -4.21415 4.49232 0.322808
4.202 -4.48408 1.64661 17 -0.989935 0.13479 -0.043137 -4.202 4.48408 -1.64661
1.98546 -2.12394 -0.779045 8 0.177127 -0.187668 0.96613 -1.98546 2.12394 0.779045
4.21474 -4.51028 0.107751 23 -0.98238 0.177497 0.0585147 -4.21474 4.51028 -0.107751
2.6839 -2.8741 -0.764381 8 -0.00231655 0.000999744 0.999997 -2.6839 2.8741 0.764381
4.22146 -4.52221 0.541237 26 -0.999736 0.00596979 -0.0222041 -4.22146 4.52221 -0.541237
3.26145 -3.49503 -0.757143 5 0.105858 -0.11454 0.987762 -3.26145 3.49503 0.757143
4.20578 -4.50857 0.757052 24 -0.999736 0.00596979 -0.0222041 -4.20578 4.50857 -0.757052
4.21192 -4.51831 0.978341 19 -0.873694 0.484884 -0.0393205 -4.21192 4.51831 -0.978341
4.21741 -4.52578 1.20248 27 0.128363 -0.139366 -0.981886 -4.21741 4.52578 -1.20248
4.21206 -4.52162 -0.323855 21 0.0344804 -0.0382136 0.998675 -4.21206 4.52162 0.323855
4.20063 -4.51251 -0.107612 18 -0.98238 0.177497 0.0585147 -4.20063 4.51251 0.107612
4.19817 -4.51144 1.65127 20 -0.940747 0.338973 0.00967015 -4.19817 4.51144 -1.65127
4.21394 -4.54109 0.108135 24 -0.98238 0.177497 0.0585147 -4.21394 4.54109 -0.108135
2.25699 -2.43306 -0.766183 7 -0.157497 0.162706 -0.974023 -2.25699 2.43306 0.766183
4.20565 -4.53692 0.541237 22 -0.999736 0.00596979 -0.0222041 -4.20565 4.53692 -0.541237
3.264 -3.52234 -0.760584 6 0.105858 -0.11454 0.987762 -3.264 3.52234 0.760584
4.2116 -4.54653 0.760952 22 -0.999736 0.00596979 -0.0222041 -4.2116 4.54653 -0.760952
4.14742 -4.4788 -0.749497 9 -0.0831282 0.0894081 -0.99252 -4.14742 4.4788 0.749497
4.20283 -4.54023 0.979906 19 -0.873694 0.484884 -0.0393205 -4.20283 4.54023 -0.979906
4.20981 -4.55096 -0.324902 21 0.0344804 -0.0382136 0.998675 -4.20981 4.55096 0.324902
4.18756 -4.53008 -0.107681 20 -0.999839 -0.00696113 -0.0165438 -4.18756 4.53008 0.107681
4.19128 -4.54842 0.107961 22 -0.999839 -0.00696113 -0.0165438 -4.19128 4.54842 -0.107961
2.2564 -2.44953 -0.768883 6 0.126628 -0.138978 0.982166 -2.2564 2.44953 0.768883
4.19947 -4.5605 0.324902 19 0.0356437 -0.0383104 -0.99863 -4.19947 4.5605 -0.324902
3.24572 -3.52846 -0.759333 6 0.105858 -0.11454 0.987762 -3.24572 3.52846 0.759333
4.14251 -4.50494 -0.751446 8 -0.0831282 0.0894081 -0.99252 -4.14251 4.50494 0.751446
4.19498 -4.5636 0.981783 19 -0.996544 0.071408 0.0424407 -4.19498 4.5636 -0.981783
4.1982 -4.5703 1.20629 24 0.128363 -0.139366 -0.981886 -4.1982 4.5703 -1.20629
4.18268 -4.5726 0.10817 23 -0.999839 -0.00696113 -0.0165438 -4.18268 4.5726 -0.10817
2.24741 -2.45778 -0.768883 6 0.126628 -0.138978 0.982166 -2.24741 2.45778 0.768883
2.65844 -2.90831 -0.765907 8 -0.13185 0.146887 -0.980326 -2.65844 2.90831 0.765907
4.19727 -4.59338 0.544375 28 -0.990805 0.116308 -0.0691289 -4.19727 4.59338 -0.544375
4.19406 -4.5963 -0.544375 19 -0.0607588 0.0643404 -0.996077 -4.19406 4.5963 0.544375
4.1879 -4.59277 -0.325739 21 0.0349257 -0.0388295 0.998635 -4.1879 4.59277 0.325739
4.17728 -4.58273 1.43159 27 0.147469 -0.164965 -0.975213 -4.17728 4.58273 -1.43159
4.17411 -4.58086 1.66058 19 -0.993584 0.108412 0.032226 -4.17411 4.58086 -1.66058
1.95524 -2.1518 -0.779045 8 -0.175638 0.191049 -0.965739 -1.95524 2.1518 0.779045
4.18229 -4.60273 0.108554 25 0.0115871 -0.0129437 -0.999849 -4.18229 4.60273 -0.108554
3.20968 -3.5373 -0.756517 5 0.103364 -0.115181 0.987952 -3.20968 3.5373 0.756517
4.17576 -4.60361 0.763146 25 -0.990805 0.116308 -0.0691289 -4.17576 4.60361 -0.763146
4.19087 -4.62351 0.988353 21 -0.996544 0.071408 0.0424407 -4.19087 4.62351 -0.988353
4.17106 -4.60973 1.66576 23 -0.993584 0.108412 0.032226 -4.17106 4.60973 -1.66576
1.94939 -2.1597 -0.779563 10 -0.172804 0.193784 -0.965705 -1.94939 2.1597 0.779563
2.23063 -2.47302 -0.768883 6 0.126628 -0.138978 0.982166 -2.23063 2.47302 0.768883
4.17556 -4.63092 0.326786 46 -0.0356542 0.03896 0.998604 -4.17556 4.63092 -0.326786
2.6307 -2.91759 -0.763618 6 0.0118605 -0.0105794 0.999874 -2.6307 2.91759 0.763618
4.19125 -4.64996 0.547687 51 0.0580297 -0.0646597 -0.996219 -4.19125 4.64996 -0.547687
3.20128 -3.55289 -0.757456 6 0.103364 -0.115181 0.987952 -3.20128 3.55289 0.757456
4.17586 -4.64102 1.21355 46 0.126455 -0.141405 -0.981842 -4.17586 4.64102 -1.21355
4.19394 -4.66275 -0.32867 51 0.0349257 -0.0388295 0.998635 -4.19394 4.66275 0.32867
4.16162 -4.62845 1.43699 44 -0.993584 0.108412 0.032226 -4.16162 4.62845 -1.43699
4.1614 -4.63145 1.66835 25 -0.865869 0.495352 -0.0699749 -4.1614 4.63145 -1.66835
1.93281 -2.15642 -0.77594 9 -0.172804 0.193784 -0.965705 -1.93281 2.15642 0.77594
2.22718 -2.4866 -0.770682 6 -0.160422 0.165402 -0.973091 -2.22718 2.4866 0.770682
3.18886 -3.56404 -0.757456 8 0.103364 -0.115181 0.987952 -3.18886 3.56404 0.757456
4.07656 -4.55938 -0.750959 9 0.0807966 -0.0907144 0.992594 -4.07656 4.55938 0.750959
4.16508 -4.66002 0.989917 21 -0.824942 0.564928 -0.0181078 -4.16508 4.66002 -0.989917
4.17099 -4.66991 -0.328146 27 0.0349257 -0.0388295 0.998635 -4.17099 4.66991 0.328146
1.92656 -2.1646 -0.776457 10 -0.172804 0.193784 -0.965705 -1.92656 2.1646 0.776457
4.15247 -4.66719 0.109043 20 0.0115871 -0.0129437 -0.999849 -4.15247 4.66719 -0.109043
2.2159 -2.49145 -0.769782 6 -0.160422 0.165402 -0.973091 -2.2159 2.49145 0.769782
3.17378 -3.5722 -0.75683 6 0.103364 -0.115181 0.987952 -3.17378 3.5722 0.75683
4.06326 -4.57655 -0.751446 8 0.0807966 -0.0907144 0.992594 -4.06326 4.57655 0.751446
4.15927 -4.68635 0.99242 21 -0.824942 0.564928 -0.0181078 -4.15927 4.68635 -0.99242
4.15939 -4.68648 -0.54821 19 -0.672209 0.532736 0.514127 -4.15939 4.68648 0.54821
4.15639 -4.68475 1.21736 27 -0.9735 0.228065 -0.0168709 -4.15639 4.68475 -1.21736
4.16924 -4.70088 -0.329298 23 -0.98474 0.173912 0.0064935 -4.16924 4.70088 0.329298
4.15248 -4.68363 1.44509 26 -0.865869 0.495352 -0.0699749 -4.15248 4.68363 -1.44509
4.15809 -4.69161 -0.109427 18 -0.96985 0.237268 -0.0556297 -4.15809 4.69161 0.109427
4.13793 -4.67051 1.67197 14 -0.865869 0.495352 -0.0699749 -4.13793 4.67051 -1.67197
4.14145 -4.68765 0.109182 22 -0.96985 0.237268 -0.0556297 -4.14145 4.68765 -0.109182
2.6078 -2.95381 -0.765907 6 -0.13185 0.146887 -0.980326 -2.6078 2.95381 0.765907
4.1621 -4.716 0.550301 25 -0.816734 0.573035 -0.0676549 -4.1621 4.716 -0.550301
3.15998 -3.58177 -0.756517 5 0.102121 -0.11719 0.987845 -3.15998 3.58177 0.756517
4.04726 -4.59071 -0.751446 8 0.0807966 -0.0907144 0.992594 -4.04726 4.59071 0.751446
4.14383 -4.70688 1.44779 26 -0.909208 0.414818 -0.0355838 -4.14383 4.70688 -1.44779
4.13564 -4.70088 1.67767 15 -0.909208 0.414818 -0.0355838 -4.13564 4.70088 -1.67767
1.91522 -2.18235 -0.77801 8 0.16966 -0.195335 0.96595 -1.91522 2.18235 0.77801
4.14089 -4.72011 0.109601 20 -0.96985 0.237268 -0.0556297 -4.14089 4.72011 -0.109601
2.19717 -2.50539 -0.769333 7 -0.150759 0.173014 -0.973313 -2.19717 2.50539 0.769333
4.15218 -4.73799 0.551173 27 -0.816734 0.573035 -0.0676549 -4.15218 4.73799 -0.551173
4.13925 -4.72656 0.771433 26 -0.978367 0.200044 0.0527309 -4.13925 4.72656 -0.771433
4.02074 -4.59286 -0.749497 7 0.078829 -0.0907955 0.992745 -4.02074 4.59286 0.749497
4.14857 -4.74054 0.997739 19 -0.978367 0.200044 0.0527309 -4.14857 4.74054 -0.997739
4.14625 -4.73789 -0.550824 21 -0.0574434 0.0661954 -0.996152 -4.14625 4.73789 0.550824
4.14168 -4.73434 1.2227 25 0.122106 -0.143657 -0.982066 -4.14168 4.73434 -1.2227
4.14421 -4.73889 -0.329926 23 -0.855668 0.517359 -0.0131237 -4.14421 4.73889 0.329926
4.13251 -4.72718 1.44958 26 -0.909208 0.414818 -0.0355838 -4.13251 4.72718 -1.44958
4.12683 -4.72401 1.68077 14 -0.909208 0.414818 -0.0355838 -4.12683 4.72401 -1.68077
4.12964 -4.74057 0.109741 19 -0.96985 0.237268 -0.0556297 -4.12964 4.74057 -0.109741
4.14739 -4.76598 0.552742 24 -0.0578046 0.0665033 0.99611 -4.14739 4.76598 -0.552742
4.13315 -4.75297 0.773383 27 -0.978367 0.200044 0.0527309 -4.13315 4.75297 -0.773383
4.13718 -4.76096 0.998991 17 -0.994483 0.103874 0.0146419 -4.13718 4.76096 -0.998991
4.14145 -4.76587 -0.552393 21 -0.0574434 0.0661954 -0.996152 -4.14145 4.76587 0.552393
4.13929 -4.76507 1.2269 24 0.122106 -0.143657 -0.982066 -4.13929 4.76507 -1.2269
4.12492 -4.75188 1.45273 25 -0.913572 0.406675 0.00162538 -4.12492 4.75188 -1.45273
4.1297 -4.75906 -0.109985 16 -0.855668 0.517359 -0.0131237 -4.1297 4.75906 0.109985
4.12804 -4.75882 1.68802 14 -0.913572 0.406675 0.00162538 -4.12804 4.75882 -1.68802
1.89488 -2.18983 -0.77594 7 0.16966 -0.195335 0.96595 -1.89488 2.18983 0.77594
4.12746 -4.77159 0.110125 20 -0.0115482 0.0133245 0.999845 -4.12746 4.77159 -0.110125
4.13333 -4.78345 0.55309 22 -0.0578046 0.0665033 0.99611 -4.13333 4.78345 -0.55309
4.1308 -4.78389 0.776064 24 -0.994483 0.103874 0.0146419 -4.1308 4.78389 -0.776064
4.13344 -4.79033 1.00212 19 -0.994483 0.103874 0.0146419 -4.13344 4.79033 -1.00212
4.13289 -4.79138 1.22995 21 0.122106 -0.143657 -0.982066 -4.13289 4.79138 -1.22995
4.11849 -4.77806 1.45633 24 -0.913572 0.406675 0.00162538 -4.11849 4.77806 -1.45633
4.11829 -4.77951 -0.110125 16 -0.975259 0.20387 -0.0854816 -4.11829 4.77951 0.110125
4.11392 -4.77613 1.68905 12 -0.913572 0.406675 0.00162538 -4.11392 4.77613 -1.68905
1.88974 -2.19936 -0.776975 10 0.16966 -0.195335 0.96595 -1.88974 2.19936 0.776975
2.17208 -2.52974 -0.769782 6 -0.150759 0.173014 -0.973313 -2.17208 2.52974 0.769782
2.55479 -2.97652 -0.762473 3 0.0606436 0.0269495 0.997796 -2.55479 2.97652 0.762473
4.1205 -4.80238 0.553613 23 -0.0578046 0.0665033 0.99611 -4.1205 4.80238 -0.553613
3.96855 -4.63019 -0.748765 7 0.078829 -0.0907955 0.992745 -3.96855 4.63019 0.748765
4.12441 -4.81373 1.004 16 -0.9735 0.228065 -0.0168709 -4.12441 4.81373 -1.004
4.11319 -4.80573 1.46038 20 -0.969569 0.24321 -0.0280199 -4.11319 4.80573 -1.46038
4.10572 -4.81398 0.110439 20 -0.0115482 0.0133245 0.999845 -4.10572 4.81398 -0.110439
2.16071 -2.53434 -0.768883 6 0 0 1 -2.16071 2.53434 0.768883
2.53929 -2.97944 -0.760946 3 0.0606436 0.0269495 0.997796 -2.53929 2.97944 0.760946
4.10316 -4.8246 1.2311 18 -0.969569 0.24321 -0.0280199 -4.10316 4.8246 -1.2311
4.10901 -4.8349 1.46488 20 -0.682888 0.730363 -0.0153028 -4.10901 4.8349 -1.46488
1.87684 -2.21545 -0.77801 8 0.166124 -0.196928 0.966241 -1.87684 2.21545 0.77801
4.1044 -4.8466 0.110858 21 -0.0115482 0.0133245 0.999845 -4.1044 4.8466 -0.110858
4.10416 -4.84975 0.332961 16 0.0335826 -0.0396114 -0.998651 -4.10416 4.84975 -0.332961
4.1139 -4.86297 0.557274 26 -0.0578046 0.0665033 0.99611 -4.1139 4.86297 -0.557274
3.08683 -3.65018 -0.757143 5 0.101097 -0.118999 0.987734 -3.08683 3.65018 0.757143
4.09842 -4.84811 0.779476 24 -0.0292785 0.993347 0.111374 -4.09842 4.84811 -0.779476
3.92332 -4.64262 -0.746328 7 -0.0786942 0.094105 -0.992447 -3.92332 4.64262 0.746328
4.1015 -4.85519 -0.556054 21 0.0549975 -0.0668975 0.996243 -4.1015 4.85519 0.556054
4.09336 -4.85071 1.46533 21 -0.682888 0.730363 -0.0153028 -4.09336 4.85071 -1.46533
4.08859 -4.84848 1.69941 15 -0.682888 0.730363 -0.0153028 -4.08859 4.84848 -1.69941
4.09518 -4.87008 0.111067 22 0.00380017 0.999535 -0.0302552 -4.09518 4.87008 -0.111067
2.153 -2.5613 -0.772482 6 0.0529511 0.00374611 0.99859 -2.153 2.5613 0.772482
4.09363 -4.87169 0.333485 21 0.00380017 0.999535 -0.0302552 -4.09363 4.87169 -0.333485
2.53106 -3.01213 -0.764763 6 -0.00231655 0.000999744 0.999997 -2.53106 3.01213 0.764763
4.11356 -4.89714 0.55954 29 0.0549887 -0.0669508 -0.99624 -4.11356 4.89714 -0.55954
4.09551 -4.87911 0.782157 22 -0.0242244 0.999652 0.0104468 -4.09551 4.87911 -0.782157
4.09713 -4.88623 1.2395 18 0.00550398 0.999978 -0.00370525 -4.09713 4.88623 -1.2395
4.08839 -4.881 -0.111137 15 0.0109825 -0.0133927 0.99985 -4.08839 4.881 0.111137
4.08652 -4.8805 1.70562 14 -0.00493445 0.999985 0.00231415 -4.08652 4.8805 -1.70562
4.08969 -4.89816 0.111381 21 -0.0538842 0.998539 -0.00407011 -4.08969 4.89816 -0.111381
4.0894 -4.90128 0.334531 21 -0.0538842 0.998539 -0.00407011 -4.0894 4.90128 -0.334531
2.52682 -3.02848 -0.766671 6 0 0 1 -2.52682 3.02848 0.766671
3.07139 -3.68378 -0.759646 5 -0.0998285 0.121198 -0.987596 -3.07139 3.68378 0.759646
4.09625 -4.91473 0.78557 22 -0.0782725 0.094347 0.992458 -4.09625 4.91473 -0.78557
3.88827 -4.66685 -0.74584 7 -0.0786942 0.094105 -0.992447 -3.88827 4.66685 0.74584
4.08966 -4.91031 1.01213 16 -0.104289 0.121423 0.987107 -4.08966 4.91031 -1.01213
2.51623 -3.03729 -0.766671 4 0 0 1 -2.51623 3.03729 0.766671
3.05347 -3.68839 -0.758394 5 -0.0998285 0.121198 -0.987596 -3.05347 3.68839 0.758394
4.08666 -4.93817 0.787032 20 -0.0782725 0.094347 0.992458 -4.08666 4.93817 -0.787032
4.08472 -4.93933 -0.56076 19 0.0546307 -0.0670988 0.99625 -4.08472 4.93933 0.56076
4.07667 -4.93136 1.24369 19 0.12006 -0.146691 -0.981869 -4.07667 4.93136 -1.24369
4.08096 -4.9418 -0.11187 15 0.0109975 -0.0134699 0.999849 -4.08096 4.9418 0.11187
4.05973 -4.91785 1.70872 15 0.162917 -0.200018 -0.966153 -4.05973 4.91785 -1.70872
1.84818 -2.24442 -0.779045 8 -0.16436 0.200222 -0.965866 -1.84818 2.24442 0.779045
2.1211 -2.57768 -0.770682 6 0.0529511 0.00374611 0.99859 -2.1211 2.57768 0.770682
2.50188 -3.0415 -0.765526 4 -0.00329384 -0.00222242 0.999992 -2.50188 3.0415 0.765526
4.07192 -4.95547 0.78752 21 -0.0782725 0.094347 0.992458 -4.07192 4.95547 -0.78752
4.06816 -4.95618 1.24636 25 -0.982719 0.184272 -0.017548 -4.06816 4.95618 -1.24636
4.07819 -4.97018 -0.336939 18 0.0329174 -0.0403023 0.998645 -4.07819 4.97018 0.336939
4.06726 -4.95862 1.48063 21 -0.0681439 0.953099 -0.294889 -4.06726 4.95862 -1.48063
1.844 -2.25534 -0.780598 8 -0.16436 0.200222 -0.965866 -1.844 2.25534 0.780598
4.06601 -4.97478 0.112149 32 0.0110004 -0.0134592 -0.999849 -4.06601 4.97478 -0.112149
4.07157 -4.98335 0.337253 51 0.0330005 -0.0403518 -0.99864 -4.07157 4.98335 -0.337253
4.08132 -4.99885 0.564595 53 -0.876869 0.00183795 -0.480727 -4.08132 4.99885 -0.564595
3.02765 -3.70962 -0.758394 5 -0.0998285 0.121198 -0.987596 -3.02765 3.70962 0.758394
4.06715 -4.98504 0.789957 62 -0.0782725 0.094347 0.992458 -4.06715 4.98504 -0.789957
4.04812 -4.97234 1.71804 27 0.162917 -0.200018 -0.966153 -4.04812 4.97234 -1.71804
1.83856 -2.26476 -0.781634 8 -0.16436 0.200222 -0.965866 -1.83856 2.26476 0.781634
2.10105 -2.58903 -0.769782 6 0.139464 -0.17413 0.974797 -2.10105 2.58903 0.769782
3.81356 -4.70767 -0.743891 7 0.0760805 -0.0916109 0.992884 -3.81356 4.70767 0.743891
4.04395 -4.99386 1.01776 19 0.41365 0.910123 -0.0238843 -4.04395 4.99386 -1.01776
4.03924 -4.99161 -0.33652 14 0.0329174 -0.0403023 0.998645 -4.03924 4.99161 0.33652
4.01993 -4.96952 1.47568 12 -0.0681439 0.953099 -0.294889 -4.01993 4.96952 -1.47568
4.03111 -4.98512 -0.111905 15 0.0109975 -0.0134699 0.999849 -4.03111 4.98512 0.111905
1.8274 -2.26634 -0.780081 10 -0.162056 0.202936 -0.965689 -1.8274 2.26634 0.780081
4.00696 -4.9712 0.111451 15 0.0110004 -0.0134592 -0.999849 -4.00696 4.9712 -0.111451
2.08956 -2.59332 -0.768883 6 0 0 1 -2.08956 2.59332 0.768883
4.00911 -4.97743 0.33495 16 0.0330005 -0.0403518 -0.99864 -4.00911 4.97743 -0.33495
3.80457 -4.73024 -0.745353 7 0.0757492 -0.0952068 0.992571 -3.80457 4.73024 0.745353
3.99431 -4.96792 1.00963 14 0.41365 0.910123 -0.0238843 -3.99431 4.96792 -1.00963
4.00678 -4.987 -0.335264 13 0.0329174 -0.0403023 0.998645 -4.00678 4.987 0.335264
3.97571 -4.9501 1.46578 15 0.337292 0.941341 0.0105263 -3.97571 4.9501 -1.46578
2.46461 -3.08184 -0.767052 6 0.118331 -0.148789 0.981763 -2.46461 3.08184 0.767052
3.96743 -4.9628 0.555879 21 0.0549887 -0.0669508 -0.99624 -3.96743 4.9628 -0.555879
2.98929 -3.7406 -0.758394 8 0.0974851 -0.121248 0.987824 -2.98929 3.7406 0.758394
3.78308 -4.73729 -0.744378 7 0.0757492 -0.0952068 0.992571 -3.78308 4.73729 0.744378
3.95476 -4.95405 1.004 14 0.41365 0.910123 -0.0238843 -3.95476 4.95405 -1.004
3.95153 -4.95 -0.554136 16 0.0549975 -0.0668975 0.996243 -3.95153 4.95 0.554136
3.9529 -4.95349 1.23186 18 0.312009 0.949809 0.0226472 -3.9529 4.95349 -1.23186
3.96444 -4.96972 -0.333171 13 0.0329174 -0.0403023 0.998645 -3.96444 4.96972 0.333171
3.92862 -4.94426 0.110229 17 0.36099 0.931672 0.0409153 -3.92862 4.94426 -0.110229
2.07383 -2.61089 -0.769782 6 0.139464 -0.17413 0.974797 -2.07383 2.61089 0.769782
3.93453 -4.95525 0.331601 15 0.36099 0.931672 0.0409153 -3.93453 4.95525 -0.331601
3.93274 -4.95477 0.553439 20 0.314939 0.947832 -0.049276 -3.93274 4.95477 -0.553439
2.96762 -3.74018 -0.756204 6 0.0974851 -0.121248 0.987824 -2.96762 3.74018 0.756204
3.92155 -4.94421 0.774845 22 0.314939 0.947832 -0.049276 -3.92155 4.94421 -0.774845
3.77639 -4.76291 -0.746328 7 0.0757492 -0.0952068 0.992571 -3.77639 4.76291 0.746328
3.89679 -4.92535 1.68284 12 0.160129 -0.202208 -0.966163 -3.89679 4.92535 -1.68284
1.80716 -2.2899 -0.781634 8 -0.162056 0.202936 -0.965689 -1.80716 2.2899 0.781634
2.0647 -2.61812 -0.769782 6 0.139464 -0.17413 0.974797 -2.0647 2.61812 0.769782
3.89371 -4.93915 0.329612 13 0.33835 0.940909 0.0144951 -3.89371 4.93915 -0.329612
2.43817 -3.0928 -0.765526 6 0.118331 -0.148789 0.981763 -2.43817 3.0928 0.765526
3.75114 -4.76514 -0.744622 7 0.0757492 -0.0952068 0.992571 -3.75114 4.76514 0.744622
3.88273 -4.93762 -0.329193 15 -0.032031 0.0421561 -0.998598 -3.88273 4.93762 0.329193
3.85863 -4.90873 1.44149 13 0.258632 0.964346 -0.0560916 -3.85863 4.90873 -1.44149
3.86764 -4.92373 1.67767 12 0.160129 -0.202208 -0.966163 -3.86764 4.92373 -1.67767
1.79677 -2.29315 -0.780598 8 -0.15899 0.205997 -0.96555 -1.79677 2.29315 0.780598
3.85268 -4.92058 0.327518 16 0.33835 0.940909 0.0144951 -3.85268 4.92058 -0.327518
2.42736 -3.1013 -0.765526 6 -0.117255 0.151111 -0.981538 -2.42736 3.1013 0.765526
3.8649 -4.93974 0.548733 22 0.360854 0.931772 -0.0398256 -3.8649 4.93974 -0.548733
3.73082 -4.77351 -0.743891 7 -0.684923 0.498767 -0.531142 -3.73082 4.77351 0.743891
3.84394 -4.91824 0.988666 17 0.0998258 -0.115031 -0.988333 -3.84394 4.91824 -0.988666
3.84551 -4.92203 -0.546467 16 0.0539572 -0.0678342 0.996236 -3.84551 4.92203 0.546467
3.84039 -4.91724 1.21278 18 0.258632 0.964346 -0.0560916 -3.84039 4.91724 -1.21278
3.84103 -4.9216 -0.108973 14 0.010892 -0.0134143 0.999851 -3.84103 4.9216 0.108973
3.83109 -4.91063 1.66887 13 0.160129 -0.202208 -0.966163 -3.83109 4.91063 -1.66887
2.41652 -3.10975 -0.765526 6 -0.117255 0.151111 -0.981538 -2.41652 3.10975 0.765526
2.93743 -3.78146 -0.758394 5 0.095808 -0.122707 0.987808 -2.93743 3.78146 0.758394
3.80252 -4.90042 0.982409 16 0.0998258 -0.115031 -0.988333 -3.80252 4.90042 -0.982409
3.80999 -4.91181 -0.543852 19 0.0539572 -0.0678342 0.996236 -3.80999 4.91181 0.543852
3.81599 -4.92132 -0.326367 16 -0.032031 0.0421561 -0.998598 -3.81599 4.92132 0.326367
3.7917 -4.89175 1.42889 13 0.258632 0.964346 -0.0560916 -3.7917 4.89175 -1.42889
3.78908 -4.89191 1.65799 12 0.160129 -0.202208 -0.966163 -3.78908 4.89191 -1.65799
3.78651 -4.90625 0.324797 16 0.307668 0.95054 0.0425864 -3.78651 4.90625 -0.324797
3.78616 -4.90757 0.542283 21 0.360854 0.931772 -0.0398256 -3.78616 4.90757 -0.542283
3.70551 -4.80823 -0.745353 7 -0.684923 0.498767 -0.531142 -3.70551 4.80823 0.745353
3.7645 -4.88653 -0.539668 19 0.142222 0.988107 0.0584587 -3.7645 4.88653 0.539668
3.7661 -4.89039 1.19981 18 0.00550398 0.999978 -0.00370525 -3.7661 4.89039 -1.19981
3.75781 -4.8849 -0.107577 14 0.111073 0.993797 -0.00552052 -3.75781 4.8849 0.107577
3.75479 -4.90041 0.323541 16 0.307668 0.95054 0.0425864 -3.75479 4.90041 -0.323541
3.74962 -4.89544 0.539494 21 0.265693 0.963002 -0.0450987 -3.74962 4.89544 -0.539494
3.70439 -4.84163 -0.748522 7 0.0731737 -0.0958371 0.992704 -3.70439 4.84163 0.748522
3.73582 -4.88448 0.973961 16 -0.0242244 0.999652 0.0104468 -3.73582 4.88448 -0.973961
3.73168 -4.87907 -0.537402 19 0.142222 0.988107 0.0584587 -3.73168 4.87907 0.537402
3.73112 -4.88011 1.19408 18 0.00550398 0.999978 -0.00370525 -3.73112 4.88011 -1.19408
3.73143 -4.88403 1.41899 17 0.00550398 0.999978 -0.00370525 -3.73143 4.88403 -1.41899
3.71615 -4.86757 1.64091 14 0.178099 0.98391 0.0141803 -3.71615 4.86757 -1.64091
1.7603 -2.31156 -0.778528 10 0.155519 -0.206193 0.966074 -1.7603 2.31156 0.778528
2.0227 -2.65805 -0.771132 7 0.132309 -0.17763 0.975162 -2.0227 2.65805 0.771132
3.71804 -4.88947 0.537402 18 0.265693 0.963002 -0.0450987 -3.71804 4.88947 -0.537402
3.69552 -4.86337 0.749984 19 0.255462 0.964905 -0.0608119 -3.69552 4.86337 -0.749984
3.67666 -4.84031 -0.746328 11 0.0731737 -0.0958371 0.992704 -3.67666 4.84031 0.746328
3.69844 -4.87075 0.968642 17 -0.0292785 0.993347 0.111374 -3.69844 4.87075 -0.968642
3.69033 -4.86183 1.18645 18 0.23597 0.971329 -0.02894 -3.69033 4.86183 -1.18645
3.68978 -4.8664 -0.106599 14 0.206399 0.978257 0.0203319 -3.68978 4.8664 0.106599
3.68747 -4.86511 1.63574 12 0.178099 0.98391 0.0141803 -3.68747 4.86511 -1.63574
2.01693 -2.66976 -0.772482 7 0.132309 -0.17763 0.975162 -2.01693 2.66976 0.772482
2.3776 -3.14945 -0.767052 6 0.113969 -0.151861 0.981809 -2.3776 3.14945 0.767052
3.68209 -4.87921 0.534788 19 0.255462 0.964905 -0.0608119 -3.68209 4.87921 -0.534788
3.66895 -4.86357 0.748034 21 0.255462 0.964905 -0.0608119 -3.66895 4.86357 -0.748034
3.66093 -4.8547 -0.746572 21 0.142222 0.988107 0.0584587 -3.66093 4.8547 0.746572
3.6612 -4.85681 0.963324 17 0.289523 0.957145 -0.00704127 -3.6612 4.85681 -0.963324
3.66669 -4.86587 -0.533045 19 0.322111 0.946693 0.00418791 -3.66669 4.86587 0.533045
3.66303 -4.86277 1.1834 18 0.23597 0.971329 -0.02894 -3.66303 4.86277 -1.1834
3.6495 -4.84833 1.401 20 0.23597 0.971329 -0.02894 -3.6495 4.84833 -1.401
3.64625 -4.86165 0.106076 15 0.206399 0.978257 0.0203319 -3.64625 4.86165 -0.106076
3.64473 -4.86493 0.531824 21 0.255462 0.964905 -0.0608119 -3.64473 4.86493 -0.531824
2.87387 -3.83739 -0.759333 6 0.0930361 -0.125168 0.987764 -2.87387 3.83739 0.759333
3.63445 -4.85473 0.744622 19 0.25339 0.966611 -0.0381786 -3.63445 4.85473 -0.744622
3.62765 -4.84742 0.958943 17 0.289523 0.957145 -0.00704127 -3.62765 4.84742 -0.958943
3.62487 -4.84723 1.17653 19 0.23597 0.971329 -0.02894 -3.62487 4.84723 -1.17653
3.61389 -4.83607 1.3938 17 0.134022 -0.179694 -0.97455 -3.61389 4.83607 -1.3938
3.61622 -4.83918 -0.105447 14 0.0236767 0.998873 -0.0411289 -3.61622 4.83918 0.105447
3.61526 -4.83966 1.61865 15 -0.15349 0.209051 0.965784 -3.61526 4.83966 -1.61865
1.73097 -2.32397 -0.776457 8 0.155519 -0.206193 0.966074 -1.73097 2.32397 0.776457
3.60503 -4.84004 0.105343 18 0.0236767 0.998873 -0.0411289 -3.60503 4.84004 -0.105343
2.00522 -2.69316 -0.775181 6 0.125579 -0.174749 0.976572 -2.00522 2.69316 0.775181
3.61346 -4.85844 0.529733 23 0.25339 0.966611 -0.0381786 -3.61346 4.85844 -0.529733
2.85052 -3.83264 -0.756517 5 0.0898592 -0.120592 0.988627 -2.85052 3.83264 0.756517
3.59304 -4.83627 0.95425 16 0.289523 0.957145 -0.00704127 -3.59304 4.83627 -0.95425
3.60613 -4.85743 -0.317051 18 0.0236767 0.998873 -0.0411289 -3.60613 4.85743 0.317051
3.58274 -4.82768 1.38795 18 0.134022 -0.179694 -0.97455 -3.58274 4.82768 -1.38795
3.58977 -4.83892 -0.105168 14 0.33544 0.94157 -0.0304474 -3.58977 4.83892 0.105168
3.57533 -4.82122 1.6083 14 -0.15349 0.209051 0.965784 -3.57533 4.82122 -1.6083
1.72785 -2.33591 -0.778528 10 0.152083 -0.20827 0.966175 -1.72785 2.33591 0.778528
3.56671 -4.82365 0.104714 19 0.33544 0.94157 -0.0304474 -3.56671 4.82365 -0.104714
3.57611 -4.8399 0.315377 15 0.0313013 -0.0415751 -0.998645 -3.57611 4.8399 -0.315377
2.35087 -3.18167 -0.76896 8 -0.112829 0.154513 -0.981527 -2.35087 3.18167 0.76896
3.58194 -4.84956 0.527467 24 0.25339 0.966611 -0.0381786 -3.58194 4.84956 -0.527467
3.55879 -4.82702 -0.524678 19 0.34078 0.939647 -0.0305373 -3.55879 4.82702 0.524678
3.55777 -4.82917 1.3848 18 0.134022 -0.179694 -0.97455 -3.55777 4.82917 -1.3848
3.55151 -4.82244 -0.10454 14 0.20111 0.979487 0.0126395 -3.55151 4.82244 0.10454
1.98176 -2.7008 -0.773382 6 0.128078 -0.177708 0.975713 -1.98176 2.7008 0.773382
2.82769 -3.85931 -0.757769 5 0.0930361 -0.125168 0.987764 -2.82769 3.85931 0.757769
3.53297 -4.82366 -0.734141 38 0.34078 0.939647 -0.0305373 -3.53297 4.82366 0.734141
3.52885 -4.81979 0.946116 16 0.222446 0.974745 -0.0197358 -3.52885 4.81979 -0.946116
3.5278 -4.82012 -0.522586 18 -0.684923 0.498767 -0.531142 -3.5278 4.82012 0.522586
3.52175 -4.81362 1.15936 18 0.222446 0.974745 -0.0197358 -3.52175 4.81362 -1.15936
3.52766 -4.82346 -0.313178 21 0.33544 0.94157 -0.0304474 -3.52766 4.82346 0.313178
3.51814 -4.81221 -0.104051 14 0.20111 0.979487 0.0126395 -3.51814 4.81221 0.104051
3.51309 -4.80707 1.59536 13 -0.15349 0.209051 0.965784 -3.51309 4.80707 -1.59536
3.50855 -4.81672 0.104016 20 0.20111 0.979487 0.0126395 -3.50855 4.81672 -0.104016
2.32342 -3.19206 -0.767434 8 -0.112829 0.154513 -0.981527 -2.32342 3.19206 0.767434
3.49393 -4.80546 0.72951 21 0.0713938 -0.0982956 -0.992593 -3.49393 4.80546 -0.72951
3.49893 -4.8141 -0.730729 45 0.34163 0.939673 -0.0174357 -3.49893 4.8141 0.730729
3.48192 -4.79773 1.3686 18 0.346602 0.937961 0.00979413 -3.48192 4.79773 -1.3686
3.47649 -4.80788 0.103563 20 -0.0100413 0.014506 0.999844 -3.47649 4.80788 -0.103563
2.80299 -3.88216 -0.758394 5 -0.0910891 0.127937 -0.98759 -2.80299 3.88216 0.758394
3.4632 -4.79831 0.726585 19 0.0713938 -0.0982956 -0.992593 -3.4632 4.79831 -0.726585
3.46817 -4.80696 -0.727804 45 0.34163 0.939673 -0.0174357 -3.46817 4.80696 0.727804
3.45821 -4.79669 1.14943 18 0.37057 0.928545 0.0219446 -3.45821 4.79669 -1.14943
3.46938 -4.81395 -0.31098 23 0.0306046 -0.0422505 0.998638 -3.46938 4.81395 0.31098
3.45148 -4.79088 1.3632 19 0.282657 0.958855 -0.0265064 -3.45148 4.79088 -1.3632
3.44388 -4.78209 -0.102864 14 -0.0101333 0.0143755 -0.999845 -3.44388 4.78209 0.102864
3.44587 -4.78662 1.58035 12 0.346602 0.937961 0.00979413 -3.44587 4.78662 -1.58035
1.96198 -2.73442 -0.776981 6 0.125579 -0.174749 0.976572 -1.96198 2.73442 0.776981
2.78252 -3.88229 -0.756517 5 -0.0910891 0.127937 -0.98759 -2.78252 3.88229 0.756517
3.4243 -4.78478 1.14371 19 0.37057 0.928545 0.0219446 -3.4243 4.78478 -1.14371
3.44442 -4.81466 -0.310248 24 0.0306046 -0.0422505 0.998638 -3.44442 4.81466 0.310248
3.41887 -4.78071 1.3569 17 0.282657 0.958855 -0.0265064 -3.41887 4.78071 -1.3569
3.42102 -4.78372 -0.102655 14 -0.0101333 0.0143755 -0.999845 -3.42102 4.78372 0.102655
1.94838 -2.73456 -0.775181 6 0.125579 -0.174749 0.976572 -1.94838 2.73456 0.775181
3.41463 -4.79421 0.308468 16 0.0306875 -0.0419188 -0.99865 -3.41463 4.79421 -0.308468
3.40925 -4.7902 0.514393 23 -0.0504009 0.07234 0.996106 -3.40925 4.7902 -0.514393
2.76161 -3.88023 -0.754327 6 -0.0910891 0.127937 -0.98759 -2.76161 3.88023 0.754327
3.39133 -4.76678 0.718298 21 0.0713938 -0.0982956 -0.992593 -3.39133 4.76678 -0.718298
3.39552 -4.77796 -0.512824 18 0.0635905 0.9978 -0.0187283 -3.39552 4.77796 0.512824
3.38567 -4.7641 1.13608 18 0.226526 0.972433 -0.0553182 -3.38567 4.7641 -1.13608
3.37967 -4.7627 1.56482 15 0.150508 -0.206494 -0.966803 -3.37967 4.7627 -1.56482
3.37449 -4.77126 0.30627 15 0.245266 0.968767 0.0365385 -3.37449 4.77126 -0.30627
3.36353 -4.76458 -0.716104 31 0.38339 0.923435 -0.0167292 -3.36353 4.76458 0.716104
3.36817 -4.77292 -0.511081 18 0.0635905 0.9978 -0.0187283 -3.36817 4.77292 0.511081
3.35032 -4.7529 1.34251 20 -0.128323 0.18606 0.974123 -3.35032 4.7529 -1.34251
3.35273 -4.75809 1.55964 15 0.150508 -0.206494 -0.966803 -3.35273 4.75809 -1.55964
1.67582 -2.38533 -0.781116 10 -0.148166 0.214268 -0.965472 -1.67582 2.38533 0.781116
3.3406 -4.75849 0.3047 15 0.245266 0.968767 0.0365385 -3.3406 4.75849 -0.3047
2.25439 -3.21244 -0.762854 5 0.110342 -0.154586 0.981798 -2.25439 3.21244 0.762854
3.35254 -4.77904 0.510733 27 0.220817 0.971275 -0.0886847 -3.35254 4.77904 -0.510733
3.34463 -4.77485 -0.510035 18 0.0635905 0.9978 -0.0187283 -3.34463 4.77485 0.510035
3.33064 -4.75488 1.12844 21 0.0257661 0.999627 -0.00906265 -3.33064 4.75488 -1.12844
3.31778 -4.74004 1.33576 15 -0.128323 0.18606 0.974123 -3.31778 4.74004 -1.33576
3.32343 -4.74988 -0.101189 14 -0.00987992 0.0145193 -0.999846 -3.32343 4.74988 0.101189
1.66306 -2.38483 -0.779045 11 0.148777 -0.210556 0.966194 -1.66306 2.38483 0.779045
3.31742 -4.75896 0.101259 23 0.00999838 -0.0142207 -0.999849 -3.31742 4.75896 -0.101259
3.2961 -4.74069 -0.505155 18 0.333418 0.942685 -0.0132946 -3.2961 4.74069 0.505155
3.30198 -4.75093 1.12463 19 0.0257661 0.999627 -0.00906265 -3.30198 4.75093 -1.12463
3.30933 -4.76328 -0.303967 22 0.33876 0.936294 0.0927111 -3.30933 4.76328 0.303967
3.28547 -4.73246 -0.100561 16 -0.00987992 0.0145193 -0.999846 -3.28547 4.73246 0.100561
3.27804 -4.73762 0.100561 22 0.00999838 -0.0142207 -0.999849 -3.27804 4.73762 -0.100561
1.91001 -2.7615 -0.775181 6 0.125579 -0.174749 0.976572 -1.91001 2.7615 0.775181
2.71615 -3.93141 -0.75683 4 0.0883991 -0.127695 0.987866 -2.71615 3.93141 0.75683
3.27368 -4.74016 0.70733 24 -0.0683613 0.101683 0.992465 -3.27368 4.74016 -0.70733
3.26722 -4.73256 -0.706111 24 0.333418 0.942685 -0.0132946 -3.26722 4.73256 0.706111
3.26835 -4.73598 0.911387 17 0.219586 0.975591 0.00181617 -3.26835 4.73598 -0.911387
3.27454 -4.74849 -0.302293 19 0.33876 0.936294 0.0927111 -3.27454 4.74849 0.302293
3.25305 -4.72085 -0.100072 16 -0.00987992 0.0145193 -0.999846 -3.25305 4.72085 0.100072
1.64637 -2.39638 -0.779045 11 -0.148166 0.214268 -0.965472 -1.64637 2.39638 0.779045
3.24563 -4.72595 0.100072 21 0.00999838 -0.0142207 -0.999849 -3.24563 4.72595 -0.100072
1.89816 -2.76493 -0.774282 6 0.126577 -0.182797 0.974968 -1.89816 2.76493 0.774282
3.25924 -4.74932 0.301874 18 -0.0102579 0.999898 -0.00991758 -3.25924 4.74932 -0.301874
2.22952 -3.24882 -0.765907 6 -0.108434 0.157586 -0.981534 -2.22952 3.24882 0.765907
3.25385 -4.74324 0.503237 25 -0.0102579 0.999898 -0.00991758 -3.25385 4.74324 -0.503237
2.69794 -3.93435 -0.755579 4 0.0883991 -0.127695 0.987866 -2.69794 3.93435 0.755579
3.24394 -4.73411 -0.704649 24 0.316658 0.948383 0.0172369 -3.24394 4.73411 0.704649
3.23102 -4.71879 1.11165 21 0.340638 0.93948 -0.0366446 -3.23102 4.71879 -1.11165
1.64017 -2.40531 -0.780081 10 -0.148166 0.214268 -0.965472 -1.64017 2.40531 0.780081
1.8852 -2.76671 -0.772932 7 0.126577 -0.182797 0.974968 -1.8852 2.76671 0.772932
3.22015 -4.72766 0.29978 18 0.285515 0.957438 0.0423519 -3.22015 4.72766 -0.29978
3.21933 -4.72822 0.500448 22 0.285515 0.957438 0.0423519 -3.21933 4.72822 -0.500448
3.20478 -4.71038 0.69953 24 -0.0683613 0.101683 0.992465 -3.20478 4.71038 -0.69953
3.20954 -4.71915 -0.700749 27 -0.150176 0.98857 -0.0133296 -3.20954 4.71915 0.700749
3.21078 -4.72274 0.904504 17 0.340638 0.93948 -0.0366446 -3.21078 4.72274 -0.904504
3.20819 -4.71893 -0.499228 18 -0.150176 0.98857 -0.0133296 -3.20819 4.71893 0.499228
3.21325 -4.72993 -0.299676 23 0.316658 0.948383 0.0172369 -3.21325 4.72993 0.299676
3.19789 -4.70908 1.31416 23 0.409339 0.911556 -0.0388307 -3.19789 4.70908 -1.31416
3.19566 -4.70934 1.52496 26 0.126677 0.99184 0.014346 -3.19566 4.70934 -1.52496
1.63068 -2.40942 -0.779563 11 -0.145268 0.217141 -0.96527 -1.63068 2.40942 0.779563
3.195 -4.72787 0.499228 24 0.285515 0.957438 0.0423519 -3.195 4.72787 -0.499228
3.17861 -4.70893 -0.69758 28 0.354632 0.934974 -0.00768192 -3.17861 4.70893 0.69758
3.17659 -4.70772 0.899498 19 0.340638 0.93948 -0.0366446 -3.17659 4.70772 -0.899498
3.18166 -4.71524 -0.497659 18 0.354632 0.934974 -0.00768192 -3.18166 4.71524 0.497659
3.17275 -4.7038 1.10288 27 0.181175 0.980682 -0.0737453 -3.17275 4.7038 -1.10288
3.18221 -4.71959 -0.298315 25 -0.150176 0.98857 -0.0133296 -3.18221 4.71959 0.298315
3.16727 -4.69921 1.30832 21 0.126677 0.99184 0.014346 -3.16727 4.69921 -1.30832
1.62011 -2.41189 -0.778528 11 -0.145268 0.217141 -0.96527 -1.62011 2.41189 0.778528
2.19318 -3.26873 -0.765144 6 -0.107675 0.166169 -0.980201 -2.19318 3.26873 0.765144
3.16405 -4.71748 0.496962 29 0.285515 0.957438 0.0423519 -3.16405 4.71748 -0.496962
3.15303 -4.7046 0.695387 24 0.148238 0.988734 -0.0207445 -3.15303 4.7046 -0.695387
3.15442 -4.70845 -0.695874 34 0.354632 0.934974 -0.00768192 -3.15442 4.70845 0.695874
3.14695 -4.69909 0.895744 19 0.148238 0.988734 -0.0207445 -3.14695 4.69909 -0.895744
3.14523 -4.69652 -0.494522 18 0.354632 0.934974 -0.00768192 -3.14523 4.69652 0.494522
3.14867 -4.70342 1.1002 30 0.181175 0.980682 -0.0737453 -3.14867 4.70342 -1.1002
3.12669 -4.70071 0.693193 45 0.148238 0.988734 -0.0207445 -3.12669 4.70071 -0.693193
3.12367 -4.69795 -0.692705 45 -0.0154167 0.999861 0.00631236 -3.12367 4.69795 0.692705
3.11919 -4.69476 1.09563 49 0.181175 0.980682 -0.0737453 -3.11919 4.69476 -1.09563
3.11714 -4.69523 1.30112 51 0.126677 0.99184 0.014346 -3.11714 4.69523 -1.30112
3.10239 -4.67655 1.50374 45 0.332898 0.942871 -0.013192 -3.10239 4.67655 -1.50374
1.60494 -2.42664 -0.779563 11 -0.145268 0.217141 -0.96527 -1.60494 2.42664 0.779563
2.62708 -3.97965 -0.755266 4 0.0864149 -0.12902 0.98787 -2.62708 3.97965 0.755266
3.09714 -4.69171 0.690268 25 0.428868 0.902481 0.0399978 -3.09714 4.69171 -0.690268
3.09667 -4.69456 0.890738 14 0.428868 0.902481 0.0399978 -3.09667 4.69456 -0.890738
3.08961 -4.68563 -0.491035 18 0.32227 0.946536 0.0145631 -3.08961 4.68563 0.491035
3.08967 -4.69108 -0.0980476 16 0.255215 0.965054 -0.0594666 -3.08967 4.69108 0.0980476
3.06692 -4.6583 1.49442 34 0.142505 -0.212395 -0.966737 -3.06692 4.6583 -1.49442
1.83721 -2.80114 -0.773382 7 -0.129758 0.197596 -0.971658 -1.83721 2.80114 0.773382
2.61859 -3.99705 -0.75683 4 0.084292 -0.130034 0.98792 -2.61859 3.99705 0.75683
3.05708 -4.66816 0.685149 22 0.428868 0.902481 0.0399978 -3.05708 4.66816 -0.685149
3.06252 -4.67646 -0.686368 28 0.32227 0.946536 0.0145631 -3.06252 4.67646 0.686368
3.06232 -4.67972 -0.489292 18 0.32227 0.946536 0.0145631 -3.06232 4.67972 0.489292
3.06052 -4.68053 -0.293081 24 0.194152 0.980355 -0.0347798 -3.06052 4.68053 0.293081
3.06343 -4.68677 -0.0977335 16 0.255215 0.965054 -0.0594666 -3.06343 4.68677 0.0977335
3.04219 -4.65604 1.49028 33 0.142505 -0.212395 -0.966737 -3.04219 4.65604 -1.49028
3.03954 -4.66798 0.29193 16 0.213968 0.975519 0.0507982 -3.03954 4.66798 -0.29193
3.04789 -4.68438 0.488944 27 0.213968 0.975519 0.0507982 -3.04789 4.68438 -0.488944
2.60855 -4.01068 -0.757769 2 0.084292 -0.130034 0.98792 -2.60855 4.01068 0.757769
3.03185 -4.66329 -0.682956 27 0.32227 0.946536 0.0145631 -3.03185 4.66329 0.682956
3.03235 -4.66584 0.881352 17 0.243625 0.969826 -0.00921327 -3.03235 4.66584 -0.881352
3.02816 -4.66296 1.08074 24 0.218485 0.97515 -0.0366858 -3.02816 4.66296 -1.08074
3.01876 -4.65026 1.27997 34 0.378844 0.923388 -0.0619091 -3.01876 4.65026 -1.27997
3.01622 -4.6499 1.4851 32 0.142505 -0.212395 -0.966737 -3.01622 4.6499 -1.4851
1.82282 -2.81981 -0.775181 6 -0.12579 0.192297 -0.973242 -1.82282 2.81981 0.775181
2.59417 -4.01765 -0.757456 4 0.084292 -0.130034 0.98792 -2.59417 4.01765 0.757456
3.01099 -4.66498 0.681737 28 0.243625 0.969826 -0.00921327 -3.01099 4.66498 -0.681737
3.00049 -4.65049 -0.679543 31 0.329472 0.944151 -0.00515964 -3.00049 4.65049 0.679543
2.99882 -4.6497 -0.484063 17 0.329472 0.944151 -0.00515964 -2.99882 4.6497 0.484063
3.00523 -4.66142 1.07807 27 0.378844 0.923388 -0.0619091 -3.00523 4.66142 -1.07807
2.98638 -4.63928 1.47837 30 0.142505 -0.212395 -0.966737 -2.98638 4.63928 -1.47837
2.97201 -4.64542 1.07196 28 0.378844 0.923388 -0.0619091 -2.97201 4.64542 -1.07196
2.96523 -4.63838 1.27097 41 0.120469 -0.189331 -0.974495 -2.96523 4.63838 -1.27097
1.56216 -2.45211 -0.779045 11 0.137714 -0.218576 0.966054 -1.56216 2.45211 0.779045
1.79577 -2.82096 -0.772032 7 0.119649 -0.190325 0.974403 -1.79577 2.82096 0.772032
2.95939 -4.65069 0.288895 18 0.205088 0.978737 0.00361351 -2.95939 4.65069 -0.288895
2.94321 -4.6306 0.673694 25 -0.0238331 0.995862 0.0877009 -2.94321 4.6306 -0.673694
2.95155 -4.64731 0.871966 17 -0.0238331 0.995862 0.0877009 -2.95155 4.64731 -0.871966
2.94412 -4.63739 -0.480577 17 -0.0465021 0.0761095 -0.996015 -2.94412 4.63739 0.480577
2.93603 -4.62645 1.0651 27 0.102037 -0.158697 -0.982041 -2.93603 4.62645 -1.0651
2.95183 -4.65313 -0.28879 29 0.286291 0.952962 -0.0995062 -2.95183 4.65313 0.28879
2.93962 -4.63389 1.26692 38 0.120469 -0.189331 -0.974495 -2.93962 4.63389 -1.26692
2.93855 -4.63399 -0.0957788 15 -0.087863 0.996119 0.0052174 -2.93855 4.63399 0.0957788
2.93013 -4.62249 1.46647 33 0.138714 -0.216063 -0.966476 -2.93013 4.62249 -1.46647
2.92192 -4.62559 0.0954996 22 0.013559 0.999533 0.0273886 -2.92192 4.62559 -0.0954996
1.79062 -2.83576 -0.774282 6 0.119649 -0.190325 0.974403 -1.79062 2.83576 0.774282
2.09943 -3.3274 -0.764763 6 -0.102562 0.163515 -0.981195 -2.09943 3.3274 0.764763
2.91563 -4.62457 0.671256 25 0.192309 0.981173 0.0178031 -2.91563 4.62457 -0.671256
2.91482 -4.62507 -0.671256 29 -0.0641685 0.104791 -0.992422 -2.91482 4.62507 0.671256
2.91765 -4.63136 0.86696 17 0.192309 0.981173 0.0178031 -2.91765 4.63136 -0.86696
2.91773 -4.63687 -0.287115 29 -0.087863 0.996119 0.0052174 -2.91773 4.63687 0.287115
2.89875 -4.6067 1.25658 28 0.120469 -0.189331 -0.974495 -2.89875 4.6067 -1.25658
2.90082 -4.61357 1.46026 33 0.138714 -0.216063 -0.966476 -2.90082 4.61357 -1.46026
1.55133 -2.47495 -0.782669 11 0.137714 -0.218576 0.966054 -1.55133 2.47495 0.782669
2.89131 -4.61809 0.285545 16 0.30747 0.947705 0.0855401 -2.89131 4.61809 -0.285545
2.88603 -4.61502 0.668332 25 0.0528317 0.997998 -0.0347742 -2.88603 4.61502 -0.668332
2.88522 -4.61553 -0.668332 31 -0.0641685 0.104791 -0.992422 -2.88522 4.61553 0.668332
2.89819 -4.63807 -0.478485 17 -0.0465021 0.0761095 -0.996015 -2.89819 4.63807 0.478485
2.86946 -4.59745 1.25118 28 0.120469 -0.189331 -0.974495 -2.86946 4.59745 -1.25118
1.77028 -2.8485 -0.774282 6 0.119649 -0.190325 0.974403 -1.77028 2.8485 0.774282
2.0689 -3.3303 -0.762091 5 0.0986349 -0.162197 0.981816 -2.0689 3.3303 0.762091
2.87576 -4.63091 0.476916 32 0.30747 0.947705 0.0855401 -2.87576 4.63091 -0.476916
2.52536 -4.06823 -0.758394 2 0.0791895 -0.126933 0.988745 -2.52536 4.06823 0.758394
2.86467 -4.61664 0.667113 24 0.192309 0.981173 0.0178031 -2.86467 4.61664 -0.667113
2.85945 -4.61182 0.859451 17 0.0528317 0.997998 -0.0347742 -2.85945 4.61182 -0.859451
2.85888 -4.6109 -0.47465 17 0.234013 0.972232 0.00172905 -2.85888 4.6109 0.47465
2.85666 -4.61451 -0.0947317 15 0.21883 0.973919 -0.0599627 -2.85666 4.61451 0.0947317
2.84029 -4.58986 1.44628 34 -0.134146 0.22337 0.965459 -2.84029 4.58986 -1.44628
2.84101 -4.60538 0.0944524 23 0.436074 0.898272 0.0542959 -2.84101 4.60538 -0.0944524
2.06962 -3.35756 -0.766671 6 -0.102562 0.163515 -0.981195 -2.06962 3.35756 0.766671
2.83763 -4.6053 0.473256 28 0.000156322 0.999742 -0.0227357 -2.83763 4.6053 -0.473256
2.51011 -4.07534 -0.758081 4 0.0791895 -0.126933 0.988745 -2.51011 4.07534 0.758081
2.83917 -4.61139 -0.664919 27 -0.0641685 0.104791 -0.992422 -2.83917 4.61139 0.664919
2.83233 -4.60388 -0.472907 17 -0.0446177 0.0767684 -0.99605 -2.83233 4.60388 0.472907
2.84182 -4.62293 -0.284394 26 0.21883 0.973919 -0.0599627 -2.84182 4.62293 0.284394
2.80989 -4.57456 1.43852 36 -0.134146 0.22337 0.965459 -2.80989 4.57456 -1.43852
2.81215 -4.5926 0.0939987 25 0.436074 0.898272 0.0542959 -2.81215 4.5926 -0.0939987
1.74881 -2.85716 -0.773382 6 0.114088 -0.190313 0.975072 -1.74881 2.85716 0.773382
2.82147 -4.60964 0.283242 16 0.000156322 0.999742 -0.0227357 -2.82147 4.60964 -0.283242
2.05745 -3.36273 -0.766289 6 0.0986349 -0.162197 0.981816 -2.05745 3.36273 0.766289
2.80983 -4.60505 -0.282719 26 0.303267 0.951028 -0.0597852 -2.80983 4.60505 0.282719
2.79842 -4.58634 1.24038 28 0.286627 0.957898 -0.0166093 -2.79842 4.58634 -1.24038
1.51448 -2.49089 -0.781116 11 0.133173 -0.220017 0.966363 -1.51448 2.49089 0.781116
1.73731 -2.85961 -0.772482 6 0.114088 -0.190313 0.975072 -1.73731 2.85961 0.772482
2.78878 -4.59215 0.281567 16 0.436074 0.898272 0.0542959 -2.78878 4.59215 -0.281567
2.05343 -3.38128 -0.76896 6 0.0986349 -0.162197 0.981816 -2.05343 3.38128 0.76896
2.79048 -4.59677 0.470467 27 0.221615 0.974882 -0.0221796 -2.79048 4.59677 -0.470467
2.4779 -4.08345 -0.756517 5 0.0808849 -0.130639 0.988125 -2.4779 4.08345 0.756517
2.77764 -4.5792 0.657607 25 0.128819 0.990339 -0.0513305 -2.77764 4.5792 -0.657607
2.78005 -4.58679 -0.469247 19 -0.0446177 0.0767684 -0.99605 -2.78005 4.58679 0.469247
2.76624 -4.56941 1.23318 28 0.236491 0.969926 -0.0575798 -2.76624 4.56941 -1.23318
2.76169 -4.56548 1.42972 34 -0.134146 0.22337 0.965459 -2.76169 4.56548 -1.42972
1.50478 -2.4945 -0.780598 10 0.133173 -0.220017 0.966363 -1.50478 2.4945 0.780598
1.72933 -2.869 -0.773382 6 0.114088 -0.190313 0.975072 -1.72933 2.869 0.773382
2.03654 -3.38002 -0.767052 6 0.0986349 -0.162197 0.981816 -2.03654 3.38002 0.767052
2.76311 -4.58771 0.468549 25 0.221615 0.974882 -0.0221796 -2.76311 4.58771 -0.468549
2.75478 -4.5811 -0.467678 17 -0.0446177 0.0767684 -0.99605 -2.75478 4.5811 0.467678
1.49706 -2.5014 -0.781116 11 -0.132324 0.224105 -0.96554 -1.49706 2.5014 0.781116
1.7253 -2.88505 -0.776081 6 0.114118 -0.187795 0.975556 -1.7253 2.88505 0.776081
2.73593 -4.57503 0.279369 21 0.364587 0.930288 0.0404975 -2.73593 4.57503 -0.279369
2.01365 -3.36857 -0.762854 5 -0.0985182 0.164838 -0.981388 -2.01365 3.36857 0.762854
2.73482 -4.5768 0.466458 24 0.221615 0.974882 -0.0221796 -2.73482 4.5768 -0.466458
2.7283 -4.56951 0.653463 23 0.0542237 0.998125 0.0283877 -2.7283 4.56951 -0.653463
2.72244 -4.56331 -0.464889 17 0.286801 0.957538 -0.0294431 -2.72244 4.56331 0.464889
2.73568 -4.58914 -0.279997 29 0.0265744 -0.0450748 0.99863 -2.73568 4.58914 0.279997
1.48043 -2.49332 -0.776975 11 0.133173 -0.220017 0.966363 -1.48043 2.49332 0.776975
2.70547 -4.55652 0.0924978 23 0.364587 0.930288 0.0404975 -2.70547 4.55652 -0.0924978
1.71374 -2.88741 -0.775181 6 0.114118 -0.187795 0.975556 -1.71374 2.88741 0.775181
2.71383 -4.57424 0.278741 16 0.364587 0.930288 0.0404975 -2.71383 4.57424 -0.278741
2.00388 -3.37896 -0.763618 6 -0.0985182 0.164838 -0.981388 -2.00388 3.37896 0.763618
2.43774 -4.11215 -0.757143 2 -0.07989 0.135394 -0.987566 -2.43774 4.11215 0.757143
2.71212 -4.57682 0.65322 25 0.221615 0.974882 -0.0221796 -2.71212 4.57682 -0.65322
2.70323 -4.56363 -0.65127 29 0.286801 0.957538 -0.0294431 -2.70323 4.56363 0.65127
2.69691 -4.5566 1.02922 28 0.2478 0.968137 -0.0361496 -2.69691 4.5566 -1.02922
2.7062 -4.57412 -0.278532 32 0.0265744 -0.0450748 0.99863 -2.7062 4.57412 0.278532
2.6873 -4.54397 1.21878 30 0.2478 0.968137 -0.0361496 -2.6873 4.54397 -1.21878
2.67816 -4.53214 1.41056 35 0.131162 -0.220488 -0.966531 -2.67816 4.53214 -1.41056
1.47607 -2.50487 -0.779045 11 -0.132324 0.224105 -0.96554 -1.47607 2.50487 0.779045
2.68851 -4.56601 0.277695 18 0.444963 0.894189 0.0493421 -2.68851 4.56601 -0.277695
1.99765 -3.39404 -0.765526 6 -0.0985182 0.164838 -0.981388 -1.99765 3.39404 0.765526
2.68441 -4.56268 0.463146 27 0.0542237 0.998125 0.0283877 -2.68441 4.56268 -0.463146
2.42136 -4.11723 -0.756517 4 -0.07989 0.135394 -0.987566 -2.42136 4.11723 0.756517
2.67601 -4.55204 0.648345 25 0.182328 0.982604 0.0352971 -2.67601 4.55204 -0.648345
2.67923 -4.55935 -0.64932 30 0.102454 0.994446 -0.0241043 -2.67923 4.55935 0.64932
2.67713 -4.55577 0.836924 16 0.128819 0.990339 -0.0513305 -2.67713 4.55577 -0.836924
2.65959 -4.53316 1.21339 28 -0.112245 0.19669 0.97402 -2.65959 4.53316 -1.21339
2.65622 -4.54376 0.0918695 24 0.444963 0.894189 0.0493421 -2.65622 4.54376 -0.0918695
2.65442 -4.54432 0.275811 16 0.444963 0.894189 0.0493421 -2.65442 4.54432 -0.275811
2.41268 -4.13377 -0.758081 4 -0.07989 0.135394 -0.987566 -2.41268 4.13377 0.758081
2.65325 -4.55143 0.834422 19 0.182328 0.982604 0.0352971 -2.65325 4.55143 -0.834422
2.64112 -4.53244 1.01968 27 0.225068 0.973177 -0.0476578 -2.64112 4.53244 -1.01968
2.64988 -4.54929 -0.275915 28 0.0265744 -0.0450748 0.99863 -2.64988 4.54929 0.275915
2.63462 -4.52855 1.40383 38 0.131162 -0.220488 -0.966531 -2.63462 4.52855 -1.40383
2.62794 -4.53708 0.0915204 24 0.428427 0.903564 0.00474763 -2.62794 4.53708 -0.0915204
1.67849 -2.89904 -0.773382 6 -0.112588 0.197876 -0.97374 -1.67849 2.89904 0.773382
1.97271 -3.40859 -0.765526 6 -0.0952151 0.166796 -0.981383 -1.97271 3.40859 0.765526
2.63193 -4.54947 0.459834 27 -0.042653 0.0770459 0.996115 -2.63193 4.54947 -0.459834
2.6227 -4.53716 0.64347 25 0.161498 0.986423 -0.0298088 -2.6227 4.53716 -0.64347
2.61694 -4.52902 -0.642251 26 0.36522 0.928582 0.0659533 -2.61694 4.52902 0.642251
2.61994 -4.53422 0.829416 17 0.161498 0.986423 -0.0298088 -2.61994 4.53422 -0.829416
2.60681 -4.51877 1.20439 23 -0.112245 0.19669 0.97402 -2.60681 4.51877 -1.20439
2.61402 -4.53127 -0.091311 15 0.428427 0.903564 0.00474763 -2.61402 4.53127 0.091311
2.60563 -4.51855 1.39762 39 0.131162 -0.220488 -0.966531 -2.60563 4.51855 -1.39762
2.6079 -4.5371 0.0913459 25 0.428427 0.903564 0.00474763 -2.6079 4.5371 -0.0913459
1.66886 -2.90459 -0.773382 6 -0.112588 0.197876 -0.97374 -1.66886 2.90459 0.773382
2.60413 -4.53421 0.274031 16 0.0261876 -0.0440932 -0.998684 -2.60413 4.53421 -0.274031
1.95592 -3.40695 -0.763618 6 -0.0952151 0.166796 -0.981383 -1.95592 3.40695 0.763618
2.38624 -4.15819 -0.759333 4 0.077343 -0.135917 0.987697 -2.38624 4.15819 0.759333
2.59428 -4.5262 0.826287 17 0.161498 0.986423 -0.0298088 -2.59428 4.5262 -0.826287
2.59612 -4.53124 1.0151 22 0.225068 0.973177 -0.0476578 -2.59612 4.53124 -1.0151
2.60157 -4.54259 -0.274345 26 0.0260569 -0.0450476 0.998645 -2.60157 4.54259 0.274345
2.5831 -4.51217 1.20034 24 -0.112245 0.19669 0.97402 -2.5831 4.51217 -1.20034
2.58826 -4.52301 -0.0909619 15 0.343591 0.938901 0.0202369 -2.58826 4.52301 0.0909619
2.5745 -4.50079 1.38934 39 -0.125035 0.234312 0.964087 -2.5745 4.50079 -1.38934
1.43669 -2.51878 -0.776975 11 -0.128044 0.227609 -0.965297 -1.43669 2.51878 0.776975
2.57917 -4.52359 0.0908921 23 0.428427 0.903564 0.00474763 -2.57917 4.52359 -0.0908921
1.6645 -2.92055 -0.776081 6 0.104684 -0.190196 0.976149 -1.6645 2.92055 0.776081
2.57724 -4.52573 0.45565 27 -0.042653 0.0770459 0.996115 -2.57724 4.52573 -0.45565
2.36389 -4.15277 -0.75683 2 0.077343 -0.135917 0.987697 -2.36389 4.15277 0.75683
2.57899 -4.53247 0.640302 23 0.161498 0.986423 -0.0298088 -2.57899 4.53247 -0.640302
2.56542 -4.51412 -0.454256 19 0.212545 0.977075 0.0121668 -2.56542 4.51412 0.454256
2.57682 -4.53602 -0.273403 27 0.0260569 -0.0450476 0.998645 -2.57682 4.53602 0.273403
2.55666 -4.50419 -0.0904035 15 0.343591 0.938901 0.0202369 -2.55666 4.50419 0.0904035
1.42935 -2.52739 -0.77801 11 -0.128044 0.227609 -0.965297 -1.42935 2.52739 0.77801
2.55155 -4.51168 0.0904733 27 0.343591 0.938901 0.0202369 -2.55155 4.51168 -0.0904733
2.55767 -4.5262 0.272461 16 0.0261876 -0.0440932 -0.998684 -2.55767 4.5262 -0.272461
1.93402 -3.42394 -0.764381 6 -0.0952151 0.166796 -0.981383 -1.93402 3.42394 0.764381
2.5479 -4.51259 0.453384 24 -0.042653 0.0770459 0.996115 -2.5479 4.51259 -0.453384
2.3438 -4.1528 -0.755266 4 0.077343 -0.135917 0.987697 -2.3438 4.1528 0.755266
2.54657 -4.51206 0.636158 24 0.268098 0.961933 -0.0529855 -2.54657 4.51206 -0.636158
2.54578 -4.51251 -0.636158 30 0.0612405 -0.102958 0.992799 -2.54578 4.51251 0.636158
2.53692 -4.50048 -0.45199 18 0.212545 0.977075 0.0121668 -2.53692 4.50048 0.45199
2.54449 -4.51759 -0.271728 23 0.0260569 -0.0450476 0.998645 -2.54449 4.51759 0.271728
2.52596 -4.48835 1.38002 34 -0.125035 0.234312 0.964087 -2.52596 4.48835 -1.38002
1.42808 -2.54584 -0.782151 11 0.0984266 0.0436309 0.994187 -1.42808 2.54584 0.782151
1.63784 -2.92219 -0.773382 6 -0.112588 0.197876 -0.97374 -1.63784 2.92219 0.773382
2.33315 -4.16785 -0.756517 2 0.077343 -0.135917 0.987697 -2.33315 4.16785 0.756517
2.51741 -4.49884 0.632989 23 0.268098 0.961933 -0.0529855 -2.51741 4.49884 -0.632989
2.5176 -4.50102 -0.633233 28 0.0612405 -0.102958 0.992799 -2.5176 4.50102 0.633233
2.52552 -4.51519 0.819404 17 0.0769894 -0.135063 -0.987841 -2.52552 4.51519 -0.819404
2.51516 -4.50036 1.00213 24 0.376356 0.926341 -0.0157835 -2.51516 4.50036 -1.00213
2.50736 -4.49007 1.18729 30 0.376356 0.926341 -0.0157835 -2.50736 4.49007 -1.18729
2.50955 -4.49399 -0.089845 13 0.248876 0.96817 0.0266024 -2.50955 4.49399 0.089845
2.50369 -4.48533 1.3764 31 -0.125035 0.234312 0.964087 -2.50369 4.48533 -1.3764
2.50443 -4.50143 0.0899148 23 0.248876 0.96817 0.0266024 -2.50443 4.50143 -0.0899148
