# .PCD v0.7 - Point Cloud Data file format
VERSION 0.7
FIELDS x y z intensity
SIZE 4 4 4 4
TYPE F F F F
COUNT 1 1 1 1
WIDTH 1430
HEIGHT 1
VIEWPOINT 0 0 0 1 0 0 0
POINTS 1430
DATA ascii
4.3329802 -1.28431 -0.0788849 0
4.3283701 -1.28377 1.20972 0
4.3259201 -1.29208 0.39499 0
4.3305402 -1.29511 0.55499297 0
4.32549 -1.29606 0.87772101 0
4.3064299 -1.29117 -0.235617 0
4.3453202 -1.30366 1.04737 0
4.3131499 -1.29483 -0.0786056 0
4.3015399 -1.29871 0.0784311 0
4.2842498 -1.29676 -0.70896101 0
4.3040299 -1.30602 0.87428701 0
4.3109102 -1.30976 1.04017 0
4.2894702 -1.30406 -0.0782566 0
4.2816801 -1.30904 0.078151897 0
4.29774 -1.3164099 0.39324701 0
4.2744098 -1.31416 -0.23435999 0
4.2888398 -1.3210599 1.2024699 0
4.25424 -1.31854 0.233418 0
4.2750401 -1.32743 0.549631 0
4.2649698 -1.32594 0.70739698 0
4.2621598 -1.3267 -0.233942 0
4.24191 -1.32933 0.077593401 0
4.2496099 -1.33338 0.233418 0
4.2289801 -1.3285201 -0.70207798 0
4.2436299 -1.33476 -0.54621798 0
4.25278 -1.33845 0.70614499 0
4.2228899 -1.3290401 -0.38732001 0
4.2470498 -1.33746 0.86550999 0
4.2346501 -1.33437 -0.232686 0
4.2597899 -1.34311 1.03118 0
4.2267499 -1.34324 0.388017 0
4.2111402 -1.33909 -0.69988799 0
4.21837 -1.3422 0.54353702 0
4.2294898 -1.34655 -0.54500002 0
4.20713 -1.3418601 -0.23142999 0
4.2214098 -1.34885 1.1874599 0
4.1982498 -1.34791 0.076965101 0
4.19837 -1.34957 0.231116 0
4.1926398 -1.35095 -0.540856 0
4.1964402 -1.35299 -0.38575101 0
4.2151799 -1.35984 0.86093003 0
4.1834102 -1.3504 -0.23038299 0
4.2095098 -1.35964 1.0212801 0
4.2051702 -1.35904 -0.077139601 0
4.1746402 -1.35803 0.230069 0
4.1810298 -1.36173 -0.696446 0
4.1956902 -1.36731 0.54183102 0
4.1728001 -1.36066 -0.53890598 0
4.18222 -1.36454 -0.38488001 0
4.2010798 -1.3715 0.85902202 0
4.1899199 -1.36948 1.01768 0
4.1546998 -1.3676 0.229232 0
4.1594701 -1.36998 0.38313699 0
4.1687398 -1.37384 -0.69519502 0
4.1549201 -1.3733 -0.22933599 0
4.1633101 -1.37769 -0.076546296 0
4.1557002 -1.37598 1.1729701 0
4.13837 -1.37665 0.076127402 0
4.1385298 -1.37831 0.22860301 0
4.1471 -1.38197 0.38243899 0
4.1672101 -1.39029 0.53939402 0
4.1462498 -1.3841 -0.536713 0
4.1650701 -1.3911901 0.695508 0
4.1310201 -1.37981 -0.38104501 0
4.14253 -1.38527 -0.228917 0
4.13659 -1.3945301 0.38191599 0
4.11974 -1.38965 -0.68862498 0
4.1129599 -1.38976 -0.379825 0
4.1325498 -1.39718 0.84795499 0
4.1458201 -1.40328 1.01048 0
4.13275 -1.39966 -0.076162301 0
4.10215 -1.39649 0.075638697 0
4.10045 -1.3975 0.227033 0
4.12604 -1.40703 0.381394 0
4.1198301 -1.40652 0.53451902 0
4.09516 -1.39889 -0.53135002 0
4.12535 -1.41001 0.69050199 0
4.09307 -1.40057 -0.22671901 0
4.1108198 -1.40825 -0.075848199 0
4.1118302 -1.4094 1.16469 0
4.0893998 -1.41129 -0.68518299 0
4.0822001 -1.41199 -0.37790701 0
4.0768299 -1.41093 -0.226091 0
4.1027699 -1.42071 1.00238 0
4.0641899 -1.41689 0.225568 0
4.0628099 -1.41959 -0.52842599 0
4.0855699 -1.42834 0.68549597 0
4.05656 -1.419 -0.37599 0
4.08779 -1.43072 0.84184903 0
4.0938601 -1.43445 1.00148 0
4.0601001 -1.43297 0.37668699 0
4.0419402 -1.4273601 -0.67892599 0
4.06566 -1.43733 0.68299299 0
4.0365601 -1.42783 -0.37459499 0
4.0515699 -1.4347399 -0.225254 0
4.0430698 -1.43252 -0.074870802 0
4.0337601 -1.43715 0.224417 0
4.0421901 -1.44174 0.375467 0
4.0437102 -1.44388 0.52720702 0
4.0343599 -1.44054 -0.52598798 0
4.0422702 -1.44416 0.67986399 0
4.0299201 -1.44054 -0.374421 0
4.02422 -1.4400899 -0.223998 0
4.04108 -1.44771 1.15019 0
4.0156698 -1.45207 -0.22378901 0
3.99547 -1.45502 0.222847 0
4.0191798 -1.46445 0.37424701 0
4.0013099 -1.45873 -0.674546 0
4.0076699 -1.46184 0.523794 0
4.0061102 -1.46286 0.675484 0
4.00318 -1.46179 -0.372852 0
4.0181499 -1.46805 0.83154601 0
3.99369 -1.4599 -0.222847 0
4.0135598 -1.46796 0.98663503 0
3.9886601 -1.45964 -0.074137799 0
4.0145502 -1.46991 1.14553 0
3.98475 -1.46689 0.222533 0
3.9943399 -1.472 -0.67423302 0
3.9898601 -1.47273 0.67360699 0
3.97188 -1.46609 -0.37041199 0
3.9792099 -1.4703701 -0.222323 0
3.9974401 -1.47791 0.98393601 0
3.9804001 -1.4731899 1.1372499 0
3.9606099 -1.47215 0.073753901 0
3.96696 -1.4776599 -0.67047799 0
3.9824901 -1.4842401 0.52184498 0
3.9735899 -1.4825 0.67172998 0
3.9555399 -1.47577 -0.36936599 0
3.9838901 -1.4871401 0.82658499 0
3.9609499 -1.47936 -0.22159 0
3.9849601 -1.48912 0.98213601 0
3.9577701 -1.47975 -0.073753901 0
3.95714 -1.4802999 1.1320699 0
3.94608 -1.48245 0.073579296 0
3.9557199 -1.48764 0.221486 0
3.9551401 -1.48821 0.36971501 0
3.9549899 -1.48974 0.51892 0
3.96031 -1.49253 -0.519651 0
3.9572999 -1.49218 0.66985202 0
3.9410501 -1.48605 -0.368494 0
3.95296 -1.49133 0.82124197 0
3.97244 -1.50027 0.98033702 0
3.9277999 -1.49125 0.073334999 0
3.92996 -1.4936399 0.22033399 0
3.9349301 -1.49788 0.51696998 0
3.9291 -1.4964499 -0.51623899 0
3.95576 -1.50739 0.67047799 0
3.9265299 -1.49625 -0.367623 0
3.9403901 -1.5023299 0.81971502 0
3.9435101 -1.50509 0.97448802 0
3.93589 -1.50376 1.12897 0
3.9129701 -1.50205 0.073160499 0
3.9042101 -1.49947 0.219183 0
3.92765 -1.51004 0.368146 0
3.9215 -1.5084701 -0.66547197 0
3.92571 -1.51087 0.516482 0
3.9098599 -1.50634 -0.366577 0
3.9077101 -1.50708 -0.219497 0
3.9179699 -1.51182 0.96953899 0
3.90238 -1.51285 0.073055796 0
3.90082 -1.51381 0.21928801 0
3.8103499 -1.47947 -0.79452902 0
3.91096 -1.51932 -0.66453397 0
3.91327 -1.521 0.51550698 0
3.9019101 -1.51737 -0.514045 0
3.90464 -1.51922 0.66359502 0
3.8952401 -1.51713 -0.219078 0
3.9093001 -1.5233901 0.96863902 0
3.8929 -1.5185601 1.11965 0
3.8784499 -1.51917 0.072706699 0
3.8843501 -1.5230401 0.21866 0
3.81091 -1.4942501 -0.79567403 0
3.8857501 -1.52437 0.365183 0
3.8817201 -1.52358 -0.66046602 0
3.8919599 -1.52994 0.66234398 0
3.8843501 -1.52852 -0.21876401 0
3.89308 -1.53274 0.96594 0
3.8714001 -1.5257601 1.11499 0
3.8619699 -1.52828 0.072497301 0
3.82392 -1.51477 -0.79948997 0
3.8766999 -1.53646 0.36483401 0
3.8671999 -1.53348 -0.65890199 0
3.8709199 -1.53652 -0.51136398 0
3.88292 -1.54206 0.66171801 0
3.8697701 -1.5376199 0.809412 0
3.8548601 -1.53248 -0.21740399 0
3.8840899 -1.54488 0.96504003 0
3.8738899 -1.54161 -0.072776496 0
3.85887 -1.53641 1.11292 0
3.8442299 -1.53758 0.216985 0
3.8113201 -1.52519 -0.79796302 0
3.8657601 -1.54776 0.36431101 0
3.85659 -1.54565 0.51014501 0
3.83974 -1.53967 -0.50795102 0
3.8667901 -1.5505199 0.659841 0
3.84619 -1.54304 -0.36256799 0
3.8607399 -1.54966 0.808649 0
3.8501699 -1.54776 1.11189 0
3.81847 -1.54276 0.21583401 0
3.79687 -1.5348099 -0.79605502 0
3.85479 -1.559 0.36378801 0
3.83653 -1.55162 -0.65546 0
3.84409 -1.55545 0.50917 0
3.81989 -1.54644 -0.50600201 0
3.8315499 -1.5527101 -0.361696 0
3.8555801 -1.5624501 0.808649 0
3.8373699 -1.55663 0.95604199 0
3.8357899 -1.55755 1.1093 0
3.8182499 -1.55665 0.071973696 0
3.80936 -1.55457 0.215624 0
3.7899499 -1.5466501 -0.79567403 0
3.81829 -1.55977 -0.65327001 0
3.83863 -1.5688601 0.50917 0
3.81815 -1.56127 -0.50648898 0
3.80794 -1.55787 -0.35995299 0
3.8283 -1.56854 0.95514202 0
3.79615 -1.56311 0.071659602 0
3.80726 -1.5700099 0.360302 0
3.81478 -1.57468 0.506733 0
3.80652 -1.5728199 0.65233201 0
3.79143 -1.56659 -0.35890701 0
3.79461 -1.56945 -0.215205 0
3.8174 -1.5796601 0.95379198 0
3.80054 -1.57346 -0.071799196 0
3.7795999 -1.57175 0.071450204 0
3.7781301 -1.57423 -0.64826399 0
3.79094 -1.58035 0.50429499 0
3.7749 -1.57521 -0.35786101 0
3.7900901 -1.58232 0.79834503 0
3.7743599 -1.57653 -0.214368 0
3.80827 -1.59147 0.95289302 0
3.77828 -1.58049 1.0973901 0
3.76811 -1.58397 -0.79452902 0
3.7906899 -1.59424 0.359779 0
3.7827001 -1.59399 0.65014201 0
3.75964 -1.5858099 -0.213845 0
3.74684 -1.59044 0.213321 0
3.7426801 -1.58867 -0.79033101 0
3.7741001 -1.60279 0.358733 0
3.76337 -1.59978 0.50210202 0
3.7448299 -1.59267 -0.49966401 0
3.75894 -1.59945 0.64701301 0
3.7509799 -1.59606 -0.35664099 0
3.7626901 -1.60182 0.79491001 0
3.7581 -1.60219 -0.071310498 0
3.74455 -1.60337 0.071101099 0
3.7360201 -1.60281 -0.643884 0
3.73195 -1.6026 -0.498689 0
3.7307401 -1.60285 -0.35524699 0
3.7570801 -1.61494 0.79491001 0
3.73013 -1.60413 -0.212798 0
3.7169001 -1.60691 0.070682198 0
3.7246399 -1.6118 0.21269301 0
3.71348 -1.60697 -0.786515 0
3.7262499 -1.61327 0.35524699 0
3.7226901 -1.61404 -0.498202 0
3.7281699 -1.6187299 -0.213007 0
3.7409899 -1.62508 0.94164503 0
3.71381 -1.61404 -0.070682198 0
3.69294 -1.6118701 0.070333198 0
3.7061801 -1.61919 0.211961 0
3.70122 -1.61856 -0.639817 0
3.70976 -1.62384 -0.49722701 0
3.69574 -1.61847 -0.352981 0
3.7299399 -1.63578 0.94029498 0
3.6854601 -1.62395 0.070298299 0
3.70943 -1.63683 0.35472399 0
3.6883199 -1.62828 -0.63856602 0
3.6898301 -1.62972 0.49527699 0
3.6786499 -1.62555 -0.493815 0
3.69328 -1.63355 0.78498799 0
3.7028301 -1.63932 0.93489701 0
3.68783 -1.63422 1.08083 0
3.67612 -1.63518 0.070228502 0
3.6674199 -1.63284 0.210391 0
3.6945901 -1.64571 0.353852 0
3.67539 -1.63793 -0.63731402 0
3.68049 -1.64097 0.49478999 0
3.67114 -1.63757 -0.49357101 0
3.6792901 -1.64429 0.93039799 0
3.67115 -1.64141 -0.070193604 0
3.67329 -1.64314 1.07824 0
3.66856 -1.64718 0.070193604 0
3.6544099 -1.64236 0.20997199 0
3.6696501 -1.65075 -0.63731402 0
3.6509199 -1.64385 -0.49162099 0
3.6440699 -1.64153 -0.34966901 0
3.66642 -1.65391 0.92859799 0
3.64502 -1.65345 0.20976301 0
3.6366 -1.64963 -0.77621102 0
3.6526799 -1.65923 0.492596 0
3.63432 -1.65166 -0.490159 0
3.64118 -1.6570801 -0.209658 0
3.64504 -1.66037 -0.069914304 0
3.6336 -1.65593 1.06996 0
3.6242399 -1.6577801 0.069565304 0
3.6342299 -1.66618 0.49089 0
3.63921 -1.67 0.63418502 0
3.6326399 -1.66776 0.77697402 0
3.6154101 -1.66061 -0.208506 0
3.6477001 -1.67621 0.92679799 0
3.60936 -1.66623 0.069390804 0
3.60256 -1.66462 0.207983 0
3.62798 -1.6802 0.63324702 0
3.62062 -1.6791 0.92140001 0
3.60969 -1.67556 1.06633 0
3.5913 -1.67465 0.207669 0
3.5799799 -1.6693701 -0.76781499 0
3.6045301 -1.68312 0.48845199 0
3.5826499 -1.67366 -0.48552799 0
3.59372 -1.6796 -0.347054 0
3.58497 -1.68543 0.069146402 0
3.5727799 -1.6812201 0.206936 0
3.5896499 -1.69146 0.487234 0
3.5767801 -1.68616 -0.48552799 0
3.58043 -1.68864 0.62698901 0
3.60255 -1.6998399 0.77430302 0
3.5761399 -1.68815 -0.20725 0
3.57269 -1.68804 -0.068971902 0
3.5619099 -1.69437 -0.48430899 0
3.57094 -1.69943 0.62636399 0
3.54773 -1.68838 -0.34374201 0
3.55761 -1.69461 -0.20651799 0
3.5382199 -1.69903 -0.34339401 0
5.1673899 2.0982599 0.097349502 128
5.1618199 2.0939 0.29192999 128
5.1609101 2.09039 0.68368697 128
5.1695299 2.0917799 -0.48789799 128
5.1647 2.0845799 1.49235 128
5.18396 2.08394 0.097524002 128
5.1810699 2.0775299 0.68539298 128
5.1879001 2.07816 -0.48894399 128
5.18712 2.0768001 1.08608 128
5.17733 2.0686901 1.4938999 128
5.1949201 2.0673101 0.097593904 128
5.1837401 2.06077 0.29234901 128
5.1992302 2.0658801 0.489467 128
5.2034101 2.0643799 -0.687343 128
5.1858602 2.05637 -0.48807201 128
5.1974001 2.05885 -0.29297701 128
5.1983399 2.0455799 0.29276699 128
5.2142801 2.0476601 -0.68783098 128
5.20015 2.04106 0.88479298 128
5.20228 2.0418899 -0.48894399 128
5.21385 2.0443399 -0.29350001 128
5.2072902 2.04071 1.2912199 128
5.1898499 2.03179 1.49339 128
5.1999102 2.02736 0.097419299 128
5.2143998 2.03196 0.293291 128
5.2012601 2.01952 1.08456 128
5.2153702 2.0239601 -0.29318601 128
5.2180099 2.0239401 1.29212 128
5.2336001 2.01633 0.49068701 128
5.2147799 2.00804 0.68612403 128
5.2207599 2.0072 1.08723 128
5.20717 1.9978 1.4944201 128
5.2322698 1.99906 0.097768404 128
5.2384501 1.9961801 0.68831801 128
5.2360601 1.99318 -0.49016401 128
5.2346201 1.99054 -0.29350001 128
5.2280302 1.98698 1.2912199 128
5.23036 1.98579 1.4990799 128
5.2453899 1.97788 0.68831801 128
5.2438798 1.97627 -0.68807399 128
5.2411199 1.97419 -0.48999 128
5.2490201 1.97507 -0.293919 128
5.2191801 1.9607199 1.4938999 128
5.2404799 1.96038 0.097663701 128
5.25035 1.96094 0.490338 128
5.25598 1.96095 0.688806 128
5.2674799 1.96419 -0.69026798 128
5.2451701 1.9537899 1.08799 128
5.2558799 1.95673 -0.293919 128
5.2527299 1.95452 1.29392 128
5.26297 1.95728 -0.098012701 128
5.2491598 1.94277 0.097698599 128
5.2547798 1.9375499 -0.48999 128
5.2704902 1.94021 1.29662 128
5.2866602 1.94511 -0.098326899 128
5.2483001 1.91957 0.29287201 128
5.2901101 1.93381 0.49277899 128
5.2698798 1.92329 -0.688806 128
5.2815399 1.9265 0.89042503 128
5.2764802 1.92466 -0.491384 128
5.2680802 1.91847 1.2943701 128
5.2593899 1.91322 1.4996001 128
5.28933 1.9126199 0.49208099 128
5.2818298 1.90783 0.68953699 128
5.2821598 1.9069 -0.68953699 128
5.2752199 1.90336 0.88823497 128
5.27984 1.90294 -0.294128 128
5.2660398 1.89485 1.4996001 128
5.2880402 1.8944401 0.098047599 128
5.2841401 1.89096 0.294128 128
5.2922201 1.89281 0.49173301 128
5.2874098 1.88692 0.88917398 128
5.2919998 1.88752 -0.49155799 128
5.2996702 1.89026 1.09372 128
5.2941899 1.88622 1.29752 128
5.2973199 1.88629 -0.098152302 128
5.2744398 1.87711 1.50012 128
5.2925901 1.87317 0.29423299 128
5.29913 1.8734 0.49173301 128
5.3103199 1.87527 -0.69148701 128
5.2995601 1.87043 0.89011198 128
5.2853999 1.86439 -0.490338 128
5.3028598 1.8695199 1.09295 128
5.30651 1.86976 -0.29486099 128
5.3133101 1.87111 -0.098326899 128
5.2958002 1.85457 0.097942904 128
5.3055902 1.85279 0.69002402 128
5.3101101 1.85229 0.89073801 128
5.3035698 1.84794 -0.294337 128
5.2913899 1.84058 1.50115 128
5.3116899 1.83934 0.098117404 128
5.3252602 1.84092 0.492953 128
5.3139 1.83491 0.69026798 128
5.3120699 1.83117 1.09219 128
5.3213401 1.83228 1.29932 128
5.3303399 1.83435 -0.098396704 128
5.3218699 1.82208 0.098187201 128
5.33919 1.82489 0.49364999 128
5.3221502 1.81699 0.690512 128
5.3281002 1.8179899 -0.69124299 128
5.3310399 1.81795 -0.49277899 128
5.3295798 1.81537 -0.29506999 128
5.3307199 1.81473 -0.098292001 128
5.3184299 1.8095 1.50529 128
5.3375502 1.80251 0.69173002 128
5.3453898 1.8041199 -0.69270498 128
5.3260198 1.7955101 -0.49173301 128
5.3373799 1.7972701 1.30022 128
5.3389101 1.7967401 -0.098326899 128
5.3192201 1.78908 1.50374 128
5.3629498 1.78922 -0.69416797 128
5.3404498 1.78171 0.89167702 128
5.3418198 1.78009 1.09448 128
5.3467398 1.77966 -0.098361798 128
5.33814 1.76749 0.098152302 128
5.36165 1.76801 0.89417899 128
5.34024 1.75991 1.09295 128
5.3606 1.76455 1.30292 128
5.3643198 1.76474 -0.098571204 128
5.3499799 1.75071 0.098256998 128
5.3459702 1.74733 0.294756 128
5.3692198 1.75389 0.49417299 128
5.3520498 1.74622 0.69124299 128
5.3693399 1.75082 -0.69343698 128
5.3613901 1.7451299 -0.29548901 128
5.3538899 1.73958 1.5084 128
5.3832002 1.73665 0.49487001 128
5.3713398 1.7317899 0.692949 128
5.3682199 1.7287199 0.89324099 128
5.3768201 1.73045 -0.49417299 128
5.3696499 1.7260799 -0.29559401 128
5.36938 1.72495 1.30202 128
5.36729 1.72325 1.51047 128
5.3680801 1.71421 0.098361798 128
5.3911901 1.7153701 -0.694655 128
5.3782802 1.71023 0.89386702 128
5.3889699 1.71155 -0.29632601 128
5.38094 1.70797 1.30337 128
5.3847098 1.70813 -0.098606102 128
5.35884 1.69889 1.50633 128
5.3759398 1.6960599 0.098396704 128
5.3852201 1.69692 0.295908 128
5.39117 1.6957 0.69392401 128
5.3990402 1.69713 -0.69489902 128
5.3917599 1.69381 0.895118 128
5.3910999 1.69154 1.0983 128
5.4028301 1.69418 -0.296745 128
5.3721099 1.68249 1.5084 128
5.3815398 1.67822 0.098396704 128
5.4022598 1.68262 0.296536 128
5.4084101 1.6835001 0.49556801 128
5.4141202 1.68217 -0.696118 128
5.3962598 1.67558 -0.49434701 128
5.3966799 1.67365 -0.29611701 128
5.40767 1.6749901 -0.098815501 128
5.4006901 1.65837 0.69367999 128
5.4163799 1.66113 0.89730799 128
5.4063101 1.65597 -0.29632601 128
5.4727802 1.67529 1.32136 128
5.4219298 1.64318 -0.69563001 128
5.4249802 1.63893 -0.098920196 128
5.4237099 1.62925 0.098850399 128
5.4100199 1.62309 0.29601201 128
5.4352798 1.62963 0.49643901 128
5.4380798 1.6253 1.10326 128
5.4349599 1.62333 -0.297268 128
5.42523 1.60703 0.296536 128
5.4352002 1.60895 0.49591601 128
5.4425101 1.60905 0.69684899 128
5.4278002 1.60264 0.89636999 128
5.4325099 1.60403 -0.49556801 128
5.4361901 1.60408 1.10173 128
5.4349499 1.59135 0.098850399 128
5.4503498 1.59276 0.496788 128
5.4418998 1.58617 -0.49591601 128
5.4398699 1.58455 1.1013499 128
5.4480801 1.58591 -0.297373 128
5.4654498 1.57649 0.497659 128
5.44979 1.56991 0.69636101 128
5.4653301 1.57335 -0.69831097 128
5.45889 1.57047 -0.49696201 128
5.4497499 1.56578 -0.29716399 128
5.4684701 1.56909 -0.099304199 128
5.47858 1.55958 0.498357 128
5.48102 1.55511 1.10746 128
5.4777598 1.55108 -0.099374004 128
5.4744201 1.54085 0.099269301 128
5.4644399 1.53598 0.29747799 128
5.47824 1.53883 0.497834 128
5.4854698 1.5388 0.69953001 128
5.4819102 1.53677 -0.69904298 128
5.4716401 1.53286 -0.497136 128
5.4739799 1.52013 0.099164598 128
5.4755402 1.5185 0.29779199 128
5.4874201 1.52077 0.498182 128
5.4850702 1.51805 0.69879901 128
5.4796901 1.51451 0.900437 128
5.4808002 1.51481 -0.49748501 128
5.4882498 1.50245 0.29821 128
5.48943 1.4955601 1.10593 128
5.49579 1.48597 0.099374004 128
5.5086899 1.4843 -0.70050502 128
5.4981499 1.47837 1.10669 128
5.5234799 1.48311 -0.099827804 128
5.50455 1.46876 0.099443801 128
5.5237098 1.47078 0.50010002 128
5.5116601 1.46551 0.700261 128
5.5100198 1.46301 0.90293998 128
5.5134401 1.46289 -0.49905401 128
5.5119801 1.46044 -0.29883799 128
5.5253701 1.45265 0.099722996 128
5.5075498 1.44591 0.29842001 128
5.5265999 1.4478101 0.70147997 128
5.5306902 1.44786 -0.701967 128
5.5115199 1.44181 0.90231401 128
5.5226202 1.44368 -0.49940199 128
5.5362701 1.43075 0.500274 128
5.5376301 1.42904 0.70221102 128
5.5474901 1.43055 -0.70343 128
5.5325899 1.4246401 1.11051 128
5.5416298 1.42594 -0.299885 128
5.5259299 1.4105999 0.099548496 128
5.5448499 1.41337 0.299885 128
5.5412302 1.41141 0.500274 128
5.5368199 1.4082299 0.70147997 128
5.5480099 1.4090199 -0.50079697 128
5.5375299 1.4053299 1.11051 128
5.5674 1.4098099 -0.100247 128
5.5346999 1.39227 0.099618301 128
5.5416999 1.3889 0.70147997 128
5.5609598 1.39372 -0.70391703 128
5.5569701 1.39169 0.90732002 128
5.5586901 1.39109 -0.50132 128
5.5720401 1.39133 -0.100247 128
5.55481 1.3777601 0.099897601 128
5.5700498 1.37845 0.50201702 128
5.5597701 1.37384 0.70318598 128
5.5622201 1.3713599 1.11356 128
5.5588698 1.35716 0.299885 128
5.5663199 1.35384 0.90732002 128
5.5735998 1.35561 -0.50184298 128
5.5767698 1.33578 0.90825897 128
5.5865698 1.3360699 -0.301036 128
5.5899701 1.33481 -0.100316 128
5.5764899 1.32234 0.100037 128
5.5954199 1.32476 0.30135 128
5.6082201 1.3185 -0.100561 128
5.5936499 1.30065 0.705136 128
5.6052098 1.30128 0.91138703 128
5.6107798 1.30257 -0.50393498 128
5.60355 1.29986 1.11814 128
5.6283698 1.30252 -0.10084 128
5.6089702 1.2887501 0.100456 128
5.62605 1.28957 0.50498003 128
5.6196599 1.28501 -0.70781702 128
5.62501 1.2852 -0.50480598 128
5.6156998 1.28204 1.11967 128
5.6138902 1.2806 -0.30176899 128
5.61729 1.27931 -0.100561 128
5.6192899 1.2704901 0.100561 128
5.6128802 1.2669801 0.30156001 128
5.6324601 1.27036 0.50515503 128
5.6318598 1.26713 -0.70879197 128
5.6122298 1.26168 0.91107398 128
5.6119599 1.2616301 -0.50323701 128
5.62222 1.26187 -0.30197799 128
5.6273499 1.24755 0.50428301 128
5.6381898 1.24789 0.70903599 128
5.6519699 1.24991 -0.710742 128
5.6301699 1.24406 -0.504457 128
5.6285701 1.2426701 1.12043 128
5.64046 1.24427 -0.30271101 128
5.6321402 1.2311 0.100631 128
5.6347499 1.22651 0.70806098 128
5.6601801 1.23102 -0.71122998 128
5.64814 1.22736 0.91545498 128
5.6500502 1.22778 -0.50585198 128
5.6367102 1.22385 1.12119 128
5.6467199 1.22499 -0.302816 128
5.64147 1.21149 0.30239701 128
5.6651502 1.2145 0.50689799 128
5.6409402 1.20726 0.708305 128
5.6525898 1.2097501 -0.70976698 128
5.6524701 1.20663 1.12348 128
5.6619101 1.19728 0.101015 128
5.6493602 1.19359 0.302607 128
5.6866899 1.19941 0.50846702 128
5.66045 1.19181 0.71025503 128
5.6638799 1.1914999 0.91670603 128
5.6705699 1.18981 -0.303653 128
5.6828299 1.17893 0.50776899 128
5.6680102 1.17172 0.91670603 128
5.6740999 1.17195 -0.50689799 128
5.67664 1.17041 -0.303758 128
5.6778998 1.1696399 -0.101189 128
5.6720901 1.15813 0.101049 128
5.6840301 1.15127 1.1273 128
5.6946001 1.15237 -0.30449101 128
5.6939101 1.15119 -0.101398 128
5.7049999 1.1399699 0.50898999 128
5.68645 1.1342 0.71196097 128
5.6937699 1.1212 0.101294 128
5.72048 1.12335 0.51003498 128
5.7095299 1.1170599 -0.50898999 128
5.70819 1.11473 -0.30480501 128
5.7133398 1.10021 0.71439803 128
5.7232699 1.10109 -0.715617 128
5.7148499 1.0984401 0.92171198 128
5.7249398 1.1003799 -0.51003498 128
5.7204599 1.09848 1.13226 128
5.7192101 1.09513 -0.101643 128
5.7287798 1.08764 0.101782 128
5.7327499 1.08321 0.71634799 128
5.7313499 1.07881 -0.30564201 128
5.7227101 1.06581 0.101608 128
5.7357502 1.06617 0.305747 128
5.7395802 1.06584 0.51073301 128
5.7464399 1.064 -0.71756703 128
5.7398601 1.0617501 0.924528 128
5.7365899 1.06011 -0.51038402 128
5.7415099 1.06102 1.13493 128
5.7244301 1.04547 0.101573 128
5.7434201 1.03962 1.13455 128
5.74089 1.03812 -0.305747 128
5.7615399 1.02525 0.71854198 128
5.7685299 1.02546 0.92796898 128
5.74895 1.0199 1.13493 128
5.77529 1.0225 -0.102376 128
5.76687 1.00648 0.71878499 128
5.7709498 1.00616 -0.71927297 128
5.7662401 1.00429 0.92703098 128
5.7666001 0.99088299 0.102131 128
5.7801299 0.98801601 0.72000402 128
5.7753801 0.986166 0.92796898 128
5.7886801 0.98531997 -0.307735 128
5.7848101 0.97012299 0.51317298 128
5.7892499 0.96982801 0.72073501 128
5.7874599 0.96848702 -0.72049201 128
5.7973499 0.96494502 -0.102585 128
5.7830701 0.953237 0.102306 128
5.7901502 0.95232499 0.30752599 128
5.8085799 0.94598699 -0.102725 128
5.7944198 0.93330199 0.102446 128
5.7955799 0.93141502 0.30763099 128
5.7999601 0.92900401 0.721223 128
5.8167601 0.92961299 0.93297499 128
5.8104701 0.926525 1.14371 128
5.8159499 0.92532098 -0.102795 128
5.8076801 0.91361302 0.10262 128
5.8150902 0.90958202 0.72268498 128
5.8190699 0.90812099 -0.51526499 128
5.8116498 0.893462 0.30815399 128
5.8278899 0.89179301 -0.72390401 128
5.81709 0.889103 0.932037 128
5.8220501 0.88881701 -0.51526499 128
5.8267202 0.88745201 -0.308887 128
5.8285599 0.875247 0.308887 128
5.8322401 0.87475502 0.515962 128
5.8505998 0.87437701 -0.72634101 128
5.8289099 0.87009799 -0.51561302 128
5.8331399 0.86968702 1.1463799 128
5.8375101 0.85576397 0.309201 128
5.85361 0.85395098 -0.72634101 128
5.8397899 0.85089397 -0.51631099 128
5.8519101 0.84848702 -0.103214 128
5.84266 0.83257598 0.724635 128
5.8545599 0.83218497 -0.51735598 128
5.8454299 0.82880503 -0.30941001 128
5.8632202 0.81463301 0.72682899 128
5.8712301 0.81470102 -0.72780401 128
5.8661199 0.81294799 0.93798101 128
5.86412 0.81058502 -0.31024799 128
5.8650298 0.798195 0.103318 128
5.8601398 0.79544902 0.30993399 128
5.8859801 0.79476899 -0.72926599 128
5.8818202 0.79211903 1.15363 128
5.8710098 0.789617 -0.31045699 128
5.8744798 0.78799999 -0.103458 128
5.8787298 0.77708101 0.31077099 128
5.8803301 0.77625102 0.51892501 128
5.8926501 0.77473998 -0.72975397 128
5.88941 0.773265 0.94079697 128
5.8749399 0.77136499 -0.51840198 128
5.8895702 0.77119797 -0.31129399 128
5.9340601 0.775967 1.38165 128
5.8931599 0.75911099 0.31139901 128
5.8988099 0.75774997 0.52032 128
5.8853502 0.753932 0.728535 128
5.9110799 0.75617898 -0.731704 128
5.8843002 0.749623 -0.31087601 128
5.9289999 0.75426298 1.37985 128
5.9063001 0.734622 0.94267398 128
5.9052501 0.73344702 1.15668 128
5.8907199 0.73059601 -0.31108499 128
5.9160199 0.73163998 -0.104051 128
5.9166698 0.71495003 0.94392598 128
5.9103899 0.713144 -0.52084303 128
5.9253201 0.71494502 1.16012 128
5.9130602 0.71241701 -0.312132 128
5.9165602 0.71074498 -0.104016 128
5.9077501 0.70863903 1.59433 128
5.9282899 0.697465 0.73292202 128
5.9121099 0.68823999 1.59484 128
5.9309602 0.67994303 0.31286401 128
5.93257 0.67803001 0.522412 128
5.9386902 0.67662901 0.73389697 128
5.9271002 0.67321301 -0.52188897 128
5.9263902 0.66056401 0.104086 128
5.94521 0.66055697 0.313492 128
5.9369602 0.65649402 0.73341 128
5.9627199 0.65829301 -0.73657799 128
5.9412999 0.653826 -0.52293402 128
5.94028 0.653714 1.1616499 128
5.93608 0.652206 -0.312969 128
5.9643898 0.65426302 1.38525 128
5.9674101 0.65353698 -0.104784 128
5.9398198 0.64946902 1.60105 128
5.9485402 0.64201701 0.104435 128
5.9471102 0.63661301 0.73438501 128
5.9692898 0.63687998 0.950809 128
5.9608302 0.63282102 1.3839 128
5.9535699 0.62994897 1.60416 128
5.9527402 0.62145799 0.10447 128
5.9731002 0.61725801 -0.73730999 128
5.9675498 0.61563498 0.95018297 128
5.9563899 0.61238003 -0.313806 128
5.9576602 0.599904 0.313806 128
5.9849701 0.60054398 0.52624601 128
5.9949698 0.59837699 -0.73974699 128
5.9774199 0.59662598 0.95143503 128
5.9695301 0.59478599 -0.52485198 128
5.9883699 0.59349698 1.3893 128
5.9857602 0.593238 -0.104994 128
5.9692602 0.59055102 1.60727 128
5.97474 0.58267099 0.104784 128
6.0146999 0.58021098 -0.74194098 128
5.9912601 0.57689399 0.95331198 128
5.97752 0.57451802 -0.52537501 128
5.9956398 0.57625902 1.1708 128
5.9882498 0.57449502 -0.315272 128
6.0019498 0.57474899 1.392 128
5.9997401 0.57348299 -0.105203 128
5.98072 0.56218499 0.104854 128
5.9994798 0.561836 0.315795 128
6.0008202 0.56090498 0.52729201 128
6.0226202 0.55976099 -0.74267203 128
6.00701 0.55725598 0.95550197 128
5.9992299 0.55653399 -0.52711803 128
5.9976101 0.55532598 1.1708 128
6.02526 0.55576801 1.39695 128
5.9965901 0.54256701 0.105098 128
6.0130401 0.53665102 -0.52816403 128
6.0020599 0.53355902 -0.315795 128
6.00775 0.53300798 1.39245 128
6.01719 0.52114701 0.31652799 128
6.0303402 0.51804203 -0.743159 128
6.0225601 0.51631498 0.95737898 128
6.0218 0.51413202 -0.316737 128
6.01929 0.51286 1.3947001 128
6.0173702 0.51164198 -0.105413 128
6.0439801 0.497971 -0.74462199 128
6.04427 0.494809 1.17882 128
6.0330701 0.49176899 -0.105657 128
6.0287199 0.49035299 1.62072 128
6.0259399 0.48060101 0.105517 128
6.0366001 0.48039401 0.31736499 128
6.0417199 0.47655699 0.74413401 128
6.0479202 0.47386 1.1792001 128
6.0531998 0.47320801 -0.318203 128
6.0480599 0.47174701 1.40055 128
6.0427198 0.47132999 -0.105796 128
6.04002 0.47005901 1.62331 128
6.0462098 0.45992401 0.31778401 128
6.0534801 0.458354 0.53112698 128
6.0472298 0.45681599 0.74462199 128
6.0630898 0.45589 0.96301103 128
6.05474 0.45313299 -0.318203 128
6.05829 0.45127299 -0.106041 128
6.05301 0.44132 0.105936 128
6.0597301 0.43968099 0.31841201 128
6.0668898 0.43913901 0.53217298 128
6.0686598 0.43607301 -0.74705899 128
6.07056 0.43514499 0.96394902 128
6.0608501 0.43125901 1.40279 128
6.0662799 0.42951801 1.6295201 128
6.0664802 0.421018 0.106146 128
6.0820298 0.41569799 -0.74852198 128
6.0799298 0.41448799 0.96520102 128
6.08781 0.41288999 1.18607 128
6.0701699 0.409565 1.40459 128
6.07725 0.41004401 -0.10632 128
6.08395 0.39983001 0.106425 128
6.0746799 0.39709201 0.31904 128
6.0834398 0.39446601 0.74852198 128
6.0873199 0.392584 0.96613902 128
6.0931001 0.39082101 -0.31998199 128
6.0851698 0.38924599 1.40774 128
6.08077 0.38683301 1.63263 128
6.0813098 0.37834099 0.106355 128
6.0939698 0.376993 0.31998199 128
6.1125202 0.374928 0.75193399 128
6.1086202 0.37361899 -0.75144601 128
6.0834198 0.37101501 -0.53321898 128
6.0960002 0.36750799 -0.106599 128
6.0859399 0.36583501 1.63367 128
6.09058 0.35758099 0.106495 128
6.12222 0.356222 0.53653097 128
6.1098299 0.35336101 0.75144601 128
6.1198001 0.35286701 -0.75266498 128
6.1234398 0.35200399 0.97145802 128
6.1045699 0.35091901 -0.534962 128
6.1133599 0.35035399 1.1902699 128
6.1212101 0.34758899 -0.107018 128
6.1026101 0.34546399 1.63781 128
6.12292 0.33267999 0.752909 128
6.1216698 0.330466 -0.53635597 128
6.12043 0.32933 1.1914099 128
6.1167998 0.328062 -0.32102901 128
6.1288199 0.31797999 0.107123 128
6.1398501 0.31318101 0.75485897 128
6.14147 0.31111401 0.973961 128
6.1367102 0.30979899 -0.53757697 128
6.1258402 0.30817801 -0.32144701 128
6.13376 0.30535799 1.64557 128
6.1325002 0.29456401 0.32176101 128
6.1528001 0.29231 0.75632101 128
6.15484 0.29133299 -0.75656497 128
6.14252 0.28967601 0.973961 128
6.13975 0.288468 -0.53775102 128
6.1519899 0.28797099 1.19714 128
6.1524301 0.28583601 -0.107507 128
6.14293 0.27465099 0.107332 128
6.1584401 0.27211401 0.53931999 128
6.1617699 0.27010599 0.75729603 128
6.1486802 0.26738501 -0.53844798 128
6.1620798 0.264736 1.4239399 128
6.1944098 0.24987499 -0.76119602 128
6.1862402 0.244141 -0.108065 128
6.1726298 0.23389401 0.107821 128
6.1691799 0.23160399 0.32354099 128
6.1866698 0.22685499 0.98053098 128
6.17345 0.224215 -0.32374999 128
6.1832099 0.22348601 1.42844 128
6.21104 0.223407 -0.108484 128
6.1719499 0.21013799 0.32364601 128
6.2007799 0.20895299 0.54280603 128
6.1840601 0.20730899 0.75973397 128
6.2039399 0.206891 -0.76217097 128
6.1874299 0.205256 0.98053098 128
6.19662 0.203399 1.20515 128
6.1956801 0.201203 1.4311399 128
6.2037802 0.20146701 -0.108345 128
6.1981301 0.190455 0.10824 128
6.2006302 0.188365 0.325111 128
6.1999898 0.182928 0.982409 128
6.2035899 0.183034 -0.54298002 128
6.2108302 0.181081 -0.325634 128
6.2021899 0.17974301 1.43249 128
6.18712 0.177148 1.65851 128
6.2027602 0.168926 0.10831 128
6.2132301 0.16704001 0.325739 128
6.224 0.166243 0.54472297 128
6.24296 0.163479 -0.76680201 128
6.2183599 0.16174801 0.98522401 128
6.2393799 0.160116 -0.32710001 128
6.2203102 0.15854 1.43654 128
6.2133002 0.14751101 0.108484 128
6.2404699 0.144887 0.54611802 128
6.22785 0.139154 1.21087 128
6.2319102 0.13816001 -0.32668099 128
6.21136 0.13553201 1.6647201 128
6.2449298 0.12318 0.54646701 128
6.23597 0.121915 0.765827 128
6.2430201 0.119873 0.98897898 128
6.2420201 0.118764 1.21355 128
6.2443199 0.117717 -0.32730901 128
6.2446198 0.116633 1.4419399 128
6.2479801 0.115605 -0.109078 128
6.2330399 0.11424 1.6704201 128
6.2481499 0.105791 0.109078 128
6.2462802 0.100307 0.76704597 128
6.2403402 0.099122398 -0.76631403 128
6.2453699 0.098109096 0.98929203 128
6.2593198 0.098328099 -0.54768699 128
6.2523398 0.093855903 -0.109147 128
6.2386699 0.077315703 -0.76607102 128
6.26863 0.072213203 -0.109427 128
6.2751002 0.060239699 0.328879 128
6.2746201 0.056949601 0.77045798 128
6.2755299 0.054764301 0.993985 128
6.2698102 0.0547144 -0.548558 128
6.2891502 0.0526908 -0.32961199 128
6.2825298 0.0515358 1.45048 128
6.2808399 0.0504288 -0.109636 128
6.2729101 0.040508699 0.109496 128
6.2912502 0.038431101 0.32971701 128
6.2747798 0.035045099 0.77045798 128
6.2827301 0.033992998 -0.771433 128
6.2799301 0.032884799 -0.54943001 128
6.2972798 0.030774601 -0.33003101 128
6.2969799 0.0285751 -0.109915 128
6.2649398 0.0273364 1.6787 128
6.28901 0.0186607 0.109776 128
6.2913399 0.016468599 0.32971701 128
6.3118701 0.0154238 0.55221897 128
6.2828002 0.0131568 0.771433 128
6.2708998 0.0120404 -0.76997101 128
6.3152699 0.0110235 1.00024 128
6.3020401 0.0098975301 1.22499 128
6.2933602 0.0087885596 -0.32982099 128
6.2944298 0.00769153 1.45318 128
6.3130398 0.0066094901 -0.110194 128
6.2913599 -0.00549025 0.32971701 128
6.3158698 -0.0066139698 0.55256701 128
6.3105998 -0.0088112699 0.774845 128
6.31387 -0.0110198 -0.55239302 128
6.31774 -0.0121292 1.22805 128
6.3133202 -0.0132226 -0.33086801 128
6.3072801 -0.027520901 0.33055401 128
6.3178 -0.028669501 0.552742 128
6.2867098 -0.0318202 -0.77192003 128
6.3151898 -0.033066601 1.00024 128
6.3252201 -0.035327099 -0.331496 128
6.30931 -0.038541902 1.6906101 128
6.3231301 -0.049662702 0.33139101 128
6.3316102 -0.050834499 0.55396199 128
6.31038 -0.0539684 -0.774845 128
6.3256001 -0.0552026 -0.55343902 128
6.34302 -0.0564619 1.2330101 128
6.3447499 -0.0597996 -0.110753 128
6.3388901 -0.0719155 0.33222899 128
6.3572898 -0.073233999 0.55622798 128
6.35431 -0.077636398 1.0065 128
6.34479 -0.079735197 -0.33254299 128
6.3523798 -0.080939397 1.46668 128
6.3645 -0.082204901 -0.111102 128
6.3443699 -0.091912404 0.110753 128
6.3425999 -0.094101198 0.33243799 128
6.3614702 -0.097712897 0.781183 128
6.2979398 -0.097836398 -0.77338302 128
6.3649001 -0.099987797 -0.556925 128
6.3491201 -0.105282 1.70148 128
6.3600001 -0.114345 0.111032 128
6.3633499 -0.125516 1.46938 128
6.3641701 -0.127754 1.7056201 128
2.6210799 2.0228801 -0.76438397 255
2.63431 2.01846 -0.76618302 255
2.63204 2.0021701 -0.763484 255
2.6436801 1.9965 -0.76483399 255
2.6591101 1.97916 -0.76528299 255
2.6791501 1.96516 -0.76708299 255
2.6796899 1.9512 -0.76528299 255
2.6864901 1.9418401 -0.76528299 255
2.6900799 1.9301701 -0.76438397 255
2.7132399 1.8906699 -0.763484 255
2.7388999 1.88099 -0.76708299 255
2.73579 1.86483 -0.76438397 255
2.7458301 1.85697 -0.76528299 255
2.7763801 1.82166 -0.76663297 255
2.78109 1.8109 -0.76618302 255
2.78739 1.80118 -0.76618302 255
2.8064799 1.7858599 -0.76798302 255
2.81599 1.7781301 -0.76888299 255
3.3599501 2.08814 -0.76896 255
3.35887 2.0712399 -0.76705199 255
3.38414 2.0713699 -0.77125001 255
3.3826001 2.0550301 -0.76934201 255
2.84867 1.71775 -0.76798302 255
3.3951499 2.04566 -0.77048701 255
3.3924601 2.0118999 -0.766671 255
3.40588 2.0046201 -0.768197 255
2.8656499 1.67388 -0.76618302 255
2.5053799 1.44065 -0.774387 255
2.8840201 1.65772 -0.76798302 255
3.4219301 1.96531 -0.76705199 255
2.50032 1.42616 -0.771281 255
2.50192 1.41552 -0.77024502 255
2.9059899 1.64279 -0.77068198 255
3.4424 1.94524 -0.76857901 255
2.5102201 1.4086699 -0.771281 255
2.90151 1.62692 -0.76798302 255
3.47486 1.94761 -0.77430302 255
3.4713399 1.92974 -0.77201301 255
2.5231299 1.39342 -0.77231598 255
2.5282199 1.38416 -0.77231598 255
3.4709499 1.89793 -0.76896 255
2.94449 1.5974 -0.77338201 255
3.4827299 1.88861 -0.770105 255
2.5412199 1.36831 -0.77335101 255
2.92946 1.57603 -0.76798302 255
3.4944899 1.87923 -0.77125001 255
2.5493901 1.36125 -0.774387 255
2.9418199 1.56947 -0.76978201 255
3.5079501 1.87071 -0.77277601 255
2.5541301 1.35234 -0.774387 255
2.94383 1.5573601 -0.76888299 255
3.4988401 1.8502001 -0.76934201 255
3.50702 1.83889 -0.76972401 255
2.5566499 1.33091 -0.77231598 255
2.56128 1.32198 -0.77231598 255
2.5727601 1.31655 -0.774387 255
2.9618199 1.51434 -0.76798302 255
3.54531 1.81189 -0.77392101 255
2.5842299 1.31106 -0.77645701 255
3.5561199 1.7862099 -0.77354002 255
2.5829501 1.28781 -0.77335101 255
2.5871999 1.27924 -0.77335101 255
3.5682001 1.76196 -0.77354002 255
2.9907899 1.46517 -0.76888299 255
3.56551 1.74518 -0.77163202 255
2.61692 1.27127 -0.77956301 255
2.99964 1.4559 -0.76978201 255
3.5736499 1.73296 -0.77201301 255
2.61549 1.24753 -0.77645701 255
3.60516 1.71726 -0.77621102 255
2.6198299 1.23839 -0.77645701 255
2.62764 1.23087 -0.77749199 255
3.01262 1.41057 -0.76798302 255
2.6282001 1.22053 -0.77645701 255
3.02106 1.40169 -0.76888299 255
3.6119599 1.6750799 -0.77392101 255
2.6361599 1.2125 -0.77749199 255
3.6180799 1.66184 -0.77392101 255
4.3824902 2.01109 -0.763713 255
4.3948698 1.99823 -0.76465201 255
3.6260099 1.63492 -0.77315801 255
3.6424501 1.6270601 -0.77544802 255
4.40872 1.9675 -0.76465201 255
3.6370599 1.6102 -0.77315801 255
2.64591 1.16257 -0.774387 255
4.4361401 1.9445601 -0.76715499 255
2.6536901 1.15441 -0.77542198 255
4.4251199 1.9204299 -0.76402599 255
4.43543 1.90653 -0.76465201 255
3.6718299 1.5646501 -0.77582902 255
4.44172 1.8918101 -0.76465201 255
3.6625299 1.54636 -0.77277601 255
4.4592199 1.8809 -0.76652902 255
2.67311 1.11874 -0.77645701 255
3.0868001 1.29124 -0.77248198 255
3.67904 1.53747 -0.77506602 255
3.0951099 1.28141 -0.77338201 255
4.4670901 1.84668 -0.76559001 255
2.6810501 1.09958 -0.77645701 255
3.0887499 1.26616 -0.77068198 255
3.6935799 1.5125901 -0.77582902 255
2.6918399 1.09359 -0.77852798 255
3.09676 1.25683 -0.77158201 255
3.6967499 1.4996001 -0.77544802 255
3.0975101 1.24456 -0.77068198 255
2.69223 1.07191 -0.77645701 255
3.1054599 1.23518 -0.77158201 255
3.7053101 1.47302 -0.77506602 255
4.5107999 1.79142 -0.76871902 255
3.1170001 1.22719 -0.77338201 255
3.6976399 1.45505 -0.77239501 255
4.5023198 1.7698801 -0.76621598 255
4.5084701 1.75415 -0.76621598 255
2.7141199 1.04784 -0.77956301 255
3.1143799 1.20174 -0.77068198 255
3.7223599 1.43485 -0.77544802 255
4.5216298 1.74203 -0.76746798 255
3.7270999 1.4225 -0.77544802 255
3.71368 1.40254 -0.77163202 255
2.71029 1.01442 -0.77542198 255
3.1377399 1.1731499 -0.77338201 255
4.5451798 1.69666 -0.76840597 255
3.1271999 1.15679 -0.76978201 255
3.71417 1.37318 -0.76972401 255
4.55691 1.6648901 -0.76840597 255
3.7439699 1.35456 -0.77392101 255
4.5888801 1.64035 -0.77184802 255
3.1577401 1.11821 -0.77338201 255
3.74247 1.32381 -0.77163202 255
3.15078 1.10277 -0.77068198 255
3.76089 1.30086 -0.77354002 255
4.5967498 1.5881701 -0.77028298 255
4.6022701 1.57212 -0.77028298 255
2.75562 0.933263 -0.77956301 255
3.7698901 1.27457 -0.77354002 255
3.18047 1.06417 -0.77428198 255
4.60537 1.53825 -0.769032 255
2.76191 0.91448402 -0.77956301 255
3.1728799 1.04994 -0.77158201 255
3.7825899 1.23634 -0.77354002 255
3.18384 1.02897 -0.77248198 255
3.77215 1.2176501 -0.77048701 255
2.7602899 0.881984 -0.77645701 255
3.78947 1.20865 -0.77315801 255
3.78264 1.19121 -0.770868 255
2.7699201 0.864326 -0.77749199 255
3.1944399 0.99556899 -0.77248198 255
3.7901101 1.18049 -0.77163202 255
4.64009 1.44345 -0.76965803 255
2.7839999 0.85806501 -0.78059798 255
3.2053499 0.98670799 -0.77428198 255
4.6469898 1.42783 -0.76997101 255
3.2162299 0.97777998 -0.77608103 255
3.7945099 1.15286 -0.770868 255
4.6557298 1.41274 -0.77059603 255
3.22522 0.968229 -0.77743101 255
3.7985101 1.1396101 -0.770868 255
2.7817199 0.82556701 -0.77749199 255
4.6522198 1.37628 -0.76840597 255
3.2169399 0.94130898 -0.77383202 255
4.6494098 1.35782 -0.76715499 255
3.8215499 1.10303 -0.77315801 255
2.8013599 0.799573 -0.78059798 255
3.22156 0.91829503 -0.77338201 255
3.8102701 1.08538 -0.770105 255
4.6587801 1.32533 -0.76715499 255
2.8078499 0.790838 -0.78163397 255
3.81971 1.07367 -0.77125001 255
4.6671801 1.31013 -0.76778001 255
3.2391601 0.89890802 -0.77608103 255
4.6641102 1.29172 -0.76652902 255
3.829 1.0475 -0.77163202 255
4.6800199 1.27855 -0.76840597 255
2.81212 0.76087397 -0.78059798 255
3.23768 0.87480599 -0.77428198 255
4.6804199 1.262 -0.76778001 255
3.2443299 0.86506802 -0.775181 255
3.8645 1.02899 -0.77735603 255
4.6883998 1.24749 -0.76840597 255
3.85116 1.01033 -0.77392101 255
3.2581301 0.84321702 -0.776981 255
3.85656 0.997374 -0.77430302 255
2.8263299 0.72200102 -0.78163397 255
3.2563801 0.81854999 -0.775181 255
3.2590699 0.80774802 -0.775181 255
3.8628199 0.95666599 -0.77354002 255
2.83725 0.69427103 -0.78266901 255
3.26173 0.79693502 -0.775181 255
4.7019801 1.14622 -0.76652902 255
2.8359001 0.68345898 -0.78163397 255
3.2758601 0.788279 -0.77788103 255
3.87305 0.93127 -0.77430302 255
2.8382699 0.67355502 -0.78163397 255
3.2634301 0.77324599 -0.77428198 255
3.8858299 0.92000502 -0.77621102 255
3.2585101 0.76007998 -0.77248198 255
3.88711 0.90598899 -0.77582902 255
4.7021799 1.0942301 -0.76465201 255
2.8673799 0.65935099 -0.78836298 255
3.8703599 0.87364203 -0.77125001 255
4.7097101 1.06138 -0.76465201 255
3.8831201 0.86157799 -0.77315801 255
4.7097101 1.04326 -0.76402599 255
4.7094598 1.02597 -0.76340002 255
3.2790301 0.70415902 -0.77428198 255
3.9101501 0.83898002 -0.77735603 255
4.7207398 1.01118 -0.76465201 255
4.7124701 0.99307197 -0.762775 255
2.8542399 0.58329803 -0.78059798 255
3.9033401 0.79485202 -0.77430302 255
4.7270298 0.96172601 -0.76402599 255
2.8677199 0.57511002 -0.78370398 255
3.2923601 0.65907502 -0.775181 255
4.7343998 0.94516802 -0.76465201 255
4.7336302 0.92870098 -0.76402599 255
3.3043101 0.638704 -0.776981 255
3.92468 0.75790399 -0.77697402 255
4.7463799 0.91486901 -0.76559001 255
2.8696001 0.54532999 -0.78266901 255
4.7514901 0.898664 -0.765903 255
2.87149 0.53530997 -0.78266901 255
4.7448802 0.88027 -0.76433903 255
4.7441902 0.86216801 -0.763713 255
2.8714399 0.51406801 -0.78163397 255
3.9349999 0.70234799 -0.77697402 255
4.75495 0.846986 -0.764965 255
3.9238901 0.68624097 -0.77430302 255
4.7518902 0.83019298 -0.76402599 255
2.8824899 0.495821 -0.78370398 255
3.3054399 0.56738597 -0.77428198 255
3.9261401 0.67322397 -0.77430302 255
2.8803899 0.48511299 -0.78266901 255
3.9323399 0.660164 -0.77506602 255
4.7699399 0.78281701 -0.76559001 255
2.8951499 0.46683899 -0.78577501 255
3.29966 0.53088301 -0.77158201 255
3.3054299 0.51938999 -0.77248198 255
4.7872601 0.74966401 -0.76746798 255
2.8868899 0.44485101 -0.78266901 255
4.7897201 0.73378599 -0.76746798 255
3.31651 0.49861601 -0.77428198 255
2.90132 0.42687699 -0.78577501 255
3.3066599 0.48533699 -0.77158201 255
3.95491 0.57977998 -0.77697402 255
4.7887402 0.70030898 -0.76652902 255
3.2929001 0.47158101 -0.76798302 255
4.79702 0.684425 -0.76746798 255
3.3022499 0.46116301 -0.76978201 255
3.9588699 0.55215597 -0.77697402 255
4.8032899 0.668221 -0.76809299 255
2.8980401 0.39492199 -0.78370398 255
3.9782901 0.52587098 -0.78002697 255
4.8157802 0.63486499 -0.76934499 255
2.8968899 0.374185 -0.78266901 255
4.8042598 0.61629099 -0.76715499 255
2.9096799 0.36551499 -0.78577501 255
3.97212 0.49686599 -0.77811903 255
4.8101902 0.60084599 -0.76778001 255
2.9108801 0.35586399 -0.78577501 255
4.80442 0.58310097 -0.76652902 255
2.9121599 0.34519401 -0.78577501 255
3.9482 0.465904 -0.77277601 255
4.8359499 0.56895101 -0.771222 255
2.90184 0.33370101 -0.78266901 255
2.91066 0.32442701 -0.78473902 255
4.8141899 0.53319401 -0.76715499 255
3.98206 0.428372 -0.77850097 255
3.9854901 0.414673 -0.77888203 255
4.82762 0.50059003 -0.76871902 255
2.9100001 0.29404899 -0.78370398 255
2.9187 0.284639 -0.78577501 255
3.33412 0.32456401 -0.77338201 255
3.9707 0.38513401 -0.77544802 255
3.9875901 0.373427 -0.77850097 255
2.9244201 0.26511401 -0.78680998 255
3.9888699 0.35950699 -0.77850097 255
4.8222499 0.43292099 -0.76684201 255
2.91763 0.25423399 -0.78473902 255
3.3295701 0.288959 -0.77158201 255
2.9339399 0.24482501 -0.78887999 255
3.33056 0.277334 -0.77158201 255
2.9193799 0.23334999 -0.78473902 255
3.99247 0.31702 -0.77850097 255
4.8364401 0.38233599 -0.76840597 255
2.9240301 0.223451 -0.78577501 255
3.3362999 0.25437301 -0.77248198 255
4.0053 0.30397201 -0.78078997 255
3.3332801 0.242442 -0.77158201 255
4.8401799 0.33166999 -0.76840597 255
3.33882 0.218839 -0.77248198 255
4.0082598 0.262014 -0.78078997 255
3.9915199 0.246929 -0.77735603 255
4.83251 0.29726401 -0.76684201 255
4.8295798 0.280164 -0.76621598 255
3.34093 0.183862 -0.77248198 255
4.84236 0.26394799 -0.76809299 255
3.99581 0.205915 -0.77773702 255
4.83532 0.24748801 -0.76684201 255
2.9407001 0.14228199 -0.78887999 255
3.346 0.16130599 -0.77338201 255
3.99718 0.17731699 -0.77773702 255
3.35483 0.138264 -0.775181 255
2.9458699 0.11214 -0.78991598 255
4.0198798 0.150915 -0.78193498 255
4.8383002 0.179949 -0.76684201 255
2.9424 0.101209 -0.78887999 255
2.93888 0.090818599 -0.78784502 255
2.9275899 0.080241099 -0.78473902 255
3.3603499 0.090928704 -0.77608103 255
4.8577199 0.128901 -0.76965803 255
2.93944 0.0702978 -0.78784502 255
3.35675 0.079107203 -0.775181 255
4.8541899 0.111854 -0.769032 255
2.9553001 0.050553702 -0.79198599 255
4.0005598 0.066338897 -0.77773702 255
4.8587899 0.078873999 -0.76965803 255
2.9477301 0.040131502 -0.78991598 255
4.8629799 0.061962198 -0.77028298 255
4.0048499 0.038445801 -0.77850097 255
4.8631701 0.0449856 -0.77028298 255
4.8494701 0.0279333 -0.76809299 255
2.9402599 0.0092388699 -0.78784502 255
4.0128798 0.0105044 -0.78002697 255
2.94028 -0.00102635 -0.78784502 255
3.3810599 -0.0023604301 -0.78057998 255
4.0128899 -0.00350191 -0.78002697 255
4.8594198 -0.0059369099 -0.76965803 255
2.9441199 -0.0113047 -0.78887999 255
4.8613501 -0.022908701 -0.76997101 255
3.3985 -0.026099101 -0.78462899 255
3.3847499 -0.037809599 -0.78148001 255
4.0185199 -0.045590699 -0.78117198 255
3.3807001 -0.0495672 -0.78057998 255
4.86479 -0.073874503 -0.77059603 255
3.39415 -0.0616154 -0.78372902 255
4.02596 -0.073787801 -0.78269899 255
4.8565998 -0.090707697 -0.76934499 255
6.27176 -0.119329 -0.77021402 255
3.39976 -0.073589303 -0.785079 255
4.00212 -0.087326601 -0.77811903 255
2.9432399 -0.0729592 -0.78887999 255
2.94297 -0.083232597 -0.78887999 255
3.3913701 -0.097098999 -0.78328001 255
4.00142 -0.115264 -0.77811903 255
4.8494601 -0.141387 -0.76840597 255
2.9542401 -0.093873002 -0.79198599 255
3.3793199 -0.108561 -0.78057998 255
4.0265002 -0.130055 -0.78307998 255
2.9461701 -0.103912 -0.78991598 255
3.3984001 -0.12105 -0.785079 255
4.8621802 -0.17573901 -0.77059603 255
4.8713999 -0.193101 -0.77216101 255
2.9338 -0.123988 -0.78680998 255
4.8529401 -0.20933799 -0.76934499 255
4.0164499 -0.18589801 -0.78155398 255
4.8533301 -0.243312 -0.76965803 255
3.3801999 -0.179515 -0.78148001 255
4.0111299 -0.213724 -0.78078997 255
3.40095 -0.192525 -0.78642899 255
2.93504 -0.175402 -0.78784502 255
3.3847001 -0.20345999 -0.78283 255
4.01542 -0.24207599 -0.78193498 255
2.9382701 -0.18589 -0.78887999 255
4.0253801 -0.27089399 -0.78422499 255
4.8522902 -0.32824299 -0.77028298 255
3.37655 -0.23848 -0.78148001 255
2.9361601 -0.216649 -0.78887999 255
3.3873601 -0.25113001 -0.78417897 255
4.0057702 -0.29767999 -0.78078997 255
4.0086799 -0.31126601 -0.78155398 255
2.93466 -0.23611701 -0.78887999 255
3.3817301 -0.273276 -0.78328001 255
4.0153899 -0.32589301 -0.78307998 255
4.84934 -0.39442801 -0.77059603 255
4.01613 -0.340774 -0.78346199 255
4.8576999 -0.41303599 -0.77216101 255
2.9367001 -0.257961 -0.78991598 255
4.0149202 -0.35479 -0.78346199 255
4.8620601 -0.43136099 -0.77309901 255
2.93578 -0.26820999 -0.78991598 255
3.3929999 -0.32312301 -0.786879 255
4.0181999 -0.38337001 -0.78460699 255
2.9261501 -0.28794199 -0.78784502 255
3.3763299 -0.33343199 -0.78328001 255
4.0324702 -0.39894 -0.78766 255
3.37903 -0.34561199 -0.78417897 255
4.86342 -0.50001198 -0.774351 255
4.0198998 -0.42534599 -0.78575099 255
3.3844099 -0.36886001 -0.78597897 255
4.0247998 -0.452876 -0.787278 255
2.9265499 -0.338613 -0.78939801 255
3.3701401 -0.39113 -0.78328001 255
4.0289602 -0.46830401 -0.788423 255
4.02145 -0.48166499 -0.787278 255
2.9260299 -0.359272 -0.78991598 255
3.3905301 -0.41750601 -0.78867799 255
4.8442502 -0.59909099 -0.77309901 255
3.37745 -0.42787001 -0.78597897 255
3.9965701 -0.50700998 -0.78307998 255
2.9119599 -0.37819701 -0.78680998 255
2.91676 -0.40058401 -0.78887999 255
4.8293099 -0.66754502 -0.77216101 255
3.3633499 -0.474484 -0.78417897 255
4.0181599 -0.56757599 -0.78880399 255
2.9102199 -0.41936901 -0.78784502 255
2.90874 -0.42952499 -0.78784502 255
4.8301201 -0.71755803 -0.77341199 255
2.9053099 -0.43938699 -0.787328 255
4.0023999 -0.607449 -0.78689599 255
4.0099502 -0.62292302 -0.78880399 255
3.99806 -0.63537598 -0.78689599 255
4.8438001 -0.77151698 -0.77685398 255
3.99582 -0.64932799 -0.78689599 255
2.89889 -0.47990799 -0.787328 255
3.36815 -0.55880201 -0.78822899 255
3.98771 -0.66230702 -0.78575099 255
2.8952899 -0.48970199 -0.78680998 255
3.36426 -0.57023001 -0.78777897 255
4.8218298 -0.81988001 -0.77466398 255
2.9068899 -0.50210702 -0.79043299 255
3.34881 -0.57964301 -0.78462899 255
4.8306098 -0.83873302 -0.77654099 255
2.9070201 -0.51258701 -0.79095101 255
4.8257098 -0.85524601 -0.77622801 255
3.98581 -0.71931499 -0.787278 255
4.8343601 -0.87419403 -0.77810502 255
3.37514 -0.62067097 -0.79227799 255
4.83322 -0.89142197 -0.778418 255
2.9033999 -0.543356 -0.79146898 255
4.83008 -0.908288 -0.778418 255
2.89569 -0.55290699 -0.78991598 255
3.98564 -0.76318502 -0.78880399 255
4.8305998 -0.92672902 -0.77904397 255
2.9051199 -0.56522501 -0.79302198 255
3.36411 -0.667943 -0.79182798 255
3.9858501 -0.792835 -0.789949 255
2.8898399 -0.58269501 -0.78991598 255
3.3580599 -0.67832398 -0.79092801 255
3.98613 -0.82113498 -0.79109401 255
2.9007299 -0.60652202 -0.79405701 255
3.3378601 -0.69914001 -0.78732902 255
3.9851601 -0.83544701 -0.79147601 255
2.90237 -0.61744797 -0.79509199 255
3.97454 -0.84771502 -0.789949 255
2.88887 -0.62512398 -0.79198599 255
3.9562099 -0.85825402 -0.78689599 255
2.8829 -0.63437402 -0.79095101 255
3.34761 -0.73724598 -0.79137802 255
3.96751 -0.88902599 -0.79033101 255
3.3404801 -0.76016599 -0.79092801 255
3.3350999 -0.78346801 -0.79092801 255
2.87151 -0.68409002 -0.79095101 255
3.33992 -0.79691398 -0.79272801 255
3.9585299 -0.94524699 -0.79109401 255
3.3181801 -0.80397898 -0.78822899 255
2.88167 -0.70780599 -0.79509199 255
3.3210299 -0.816953 -0.78957802 255
2.86917 -0.72601098 -0.79302198 255
3.32658 -0.84298998 -0.79227799 255
2.8652699 -0.75650299 -0.79405701 255
3.9268501 -1.03898 -0.78956801 255
