# .PCD v0.7 - Point Cloud Data file format
VERSION 0.7
FIELDS x y z
SIZE 4 4 4
TYPE F F F
COUNT 1 1 1
WIDTH 720
HEIGHT 1
VIEWPOINT 0 0 0 1 0 0 0
POINTS 720
DATA ascii
3.9757099 -4.9500999 1.46578
3.9674301 -4.9628 0.555879
3.9547601 -4.9540501 1.0039999
3.95153 -4.9499998 -0.55413598
3.9528999 -4.9534898 1.23186
3.9644401 -4.9697199 -0.33317101
3.9286201 -4.9442601 0.110229
3.93453 -4.9552498 0.33160099
3.93274 -4.9547701 0.55343902
3.92155 -4.9442101 0.774845
3.89679 -4.9253502 1.68284
3.8937099 -4.9391499 0.32961199
3.88273 -4.9376202 -0.329193
3.8586299 -4.90873 1.4414901
3.86764 -4.9237299 1.67767
3.85268 -4.9205799 0.32751799
3.8649001 -4.9397402 0.548733
3.84394 -4.9182401 0.988666
3.84551 -4.92203 -0.54646701
3.84039 -4.9172401 1.21278
3.8410299 -4.9215999 -0.108973
3.83109 -4.9106302 1.66887
3.80252 -4.9004202 0.982409
3.8099899 -4.9118099 -0.54385197
3.81599 -4.92132 -0.32636699
3.7916999 -4.8917499 1.42889
3.7890799 -4.8919101 1.65799
3.78651 -4.90625 0.324797
3.78616 -4.9075699 0.542283
3.7055099 -4.8082299 -0.74535298
3.7644999 -4.8865299 -0.53966802
3.7660999 -4.8903899 1.19981
3.7578101 -4.8849001 -0.107577
3.7547901 -4.9004102 0.32354099
3.74962 -4.8954401 0.53949398
3.70439 -4.84163 -0.74852198
3.7358201 -4.88448 0.973961
3.7316799 -4.8790698 -0.53740197
3.7311201 -4.8801098 1.19408
3.7314301 -4.8840299 1.41899
3.71615 -4.8675699 1.64091
3.71804 -4.8894701 0.53740197
3.6955199 -4.8633699 0.74998403
3.6766601 -4.8403101 -0.746328
3.6984401 -4.87075 0.968642
3.69033 -4.8618302 1.18645
3.68978 -4.8663998 -0.106599
3.68747 -4.8651099 1.63574
3.68209 -4.87921 0.53478801
3.6689501 -4.8635702 0.748034
3.6609299 -4.8547001 -0.74657202
3.6612 -4.8568101 0.96332401
3.6666901 -4.86587 -0.53304499
3.6630299 -4.8627701 1.1834
3.6494999 -4.84833 1.401
3.64625 -4.86165 0.106076
3.6447301 -4.8649302 0.53182399
3.63445 -4.8547301 0.74462199
3.62765 -4.8474202 0.95894301
3.6248701 -4.84723 1.17653
3.6138899 -4.8360701 1.3938
3.61622 -4.83918 -0.105447
3.6152599 -4.8396602 1.61865
3.6050301 -4.8400402 0.105343
3.6134601 -4.8584399 0.529733
3.59304 -4.8362699 0.95424998
3.6061299 -4.85743 -0.31705099
3.5827401 -4.8276801 1.3879499
3.5897701 -4.8389201 -0.105168
3.57533 -4.8212199 1.6083
3.56671 -4.8236499 0.104714
3.5761099 -4.8399 0.315377
3.5819399 -4.8495598 0.52746701
3.55879 -4.8270202 -0.52467799
3.55777 -4.8291702 1.3848
3.5515101 -4.8224401 -0.10454
3.53297 -4.8236599 -0.73414099
3.5288501 -4.8197899 0.94611597
3.5278001 -4.8201199 -0.52258599
3.52175 -4.8136201 1.1593601
3.5276599 -4.8234601 -0.313178
3.5181401 -4.8122101 -0.104051
3.5130899 -4.8070698 1.59536
3.5085499 -4.81672 0.104016
3.4939301 -4.80546 0.72951001
3.49893 -4.8140998 -0.73072898
3.48192 -4.79773 1.3686
3.47649 -4.8078799 0.103563
3.4632001 -4.7983098 0.72658497
3.4681699 -4.8069601 -0.72780401
3.45821 -4.79669 1.14943
3.4693799 -4.8139501 -0.31097999
3.4514799 -4.7908802 1.3631999
3.4438801 -4.7820902 -0.102864
3.4458699 -4.7866201 1.58035
3.4243 -4.78478 1.14371
3.4444201 -4.8146601 -0.31024799
3.41887 -4.7807102 1.3569
3.42102 -4.78372 -0.102655
3.4146299 -4.79421 0.30846801
3.40925 -4.7902002 0.51439297
3.39133 -4.7667799 0.71829802
3.39552 -4.7779598 -0.512824
3.3856699 -4.7641001 1.13608
3.3796699 -4.7627001 1.5648201
3.37449 -4.7712598 0.30627
3.3635299 -4.7645798 -0.71610397
3.36817 -4.7729201 -0.51108098
3.3503201 -4.7529001 1.34251
3.35273 -4.75809 1.55964
3.3406 -4.7584901 0.30469999
3.35254 -4.7790399 0.51073301
3.34463 -4.7748499 -0.51003498
3.3306401 -4.75488 1.12844
3.31778 -4.7400398 1.33576
3.3234301 -4.7498798 -0.101189
3.31742 -4.7589598 0.101259
3.2960999 -4.7406902 -0.50515503
3.30198 -4.7509298 1.12463
3.30933 -4.7632799 -0.303967
3.28547 -4.73246 -0.100561
3.2780399 -4.7376199 0.100561
3.27368 -4.74016 0.70732999
3.26722 -4.7325602 -0.70611101
3.2683499 -4.73598 0.91138703
3.2745399 -4.7484899 -0.302293
3.2530501 -4.72085 -0.100072
3.24563 -4.7259498 0.100072
3.2592399 -4.74932 0.30187401
3.25385 -4.7432399 0.50323701
3.2439401 -4.7341099 -0.70464897
3.23102 -4.7187901 1.11165
3.22015 -4.7276602 0.29978001
3.2193301 -4.72822 0.50044799
3.2047801 -4.7103801 0.69953001
3.2095399 -4.7191501 -0.70074898
3.2107799 -4.7227402 0.904504
3.20819 -4.7189298 -0.499228
3.2132499 -4.7299299 -0.299676
3.19789 -4.7090802 1.31416
3.1956601 -4.7093401 1.52496
3.1949999 -4.72787 0.499228
3.1786101 -4.70893 -0.69757998
3.17659 -4.7077198 0.89949799
3.1816599 -4.71524 -0.497659
3.17275 -4.7038002 1.10288
3.18221 -4.7195902 -0.29831499
3.1672699 -4.6992102 1.30832
3.1640501 -4.7174802 0.49696201
3.1530299 -4.7045999 0.69538701
3.1544199 -4.7084498 -0.69587398
3.14695 -4.69909 0.89574403
3.1452301 -4.6965199 -0.49452201
3.14867 -4.7034202 1.1002001
3.1266899 -4.7007098 0.69319302
3.1236701 -4.6979499 -0.69270498
3.11919 -4.6947598 1.09563
3.1171401 -4.69523 1.30112
3.1023901 -4.6765499 1.50374
3.0971401 -4.69171 0.69026798
3.0966699 -4.6945601 0.89073801
3.0896101 -4.6856298 -0.49103501
3.0896699 -4.6910801 -0.098047599
3.06692 -4.6582999 1.4944201
3.05708 -4.66816 0.68514901
3.06252 -4.6764598 -0.68636799
3.06232 -4.6797199 -0.489292
3.0605199 -4.6805301 -0.29308099
3.0634301 -4.68677 -0.097733498
3.0421901 -4.6560402 1.49028
3.0395401 -4.6679802 0.29192999
3.0478899 -4.6843801 0.48894399
3.0318501 -4.66329 -0.68295598
3.0323501 -4.6658401 0.88135201
3.0281601 -4.6629601 1.08074
3.01876 -4.65026 1.27997
3.0162201 -4.6499 1.4851
3.0109899 -4.6649799 0.68173701
3.00049 -4.6504898 -0.67954302
2.9988201 -4.6497002 -0.484063
3.0052299 -4.6614199 1.07807
2.9863801 -4.6392798 1.47837
2.9720099 -4.6454201 1.07196
2.96523 -4.6383801 1.27097
2.9593899 -4.6506901 0.28889501
2.9432099 -4.6306 0.67369401
2.95155 -4.6473098 0.871966
2.9441199 -4.6373901 -0.48057699
2.9360299 -4.6264501 1.0651
2.9518299 -4.6531301 -0.28878999
2.93962 -4.6338902 1.26692
2.93855 -4.6339898 -0.095778801
2.93013 -4.6224899 1.46647
2.9219201 -4.6255898 0.095499597
2.9156301 -4.6245699 0.67125601
2.91482 -4.6250701 -0.67125601
2.91765 -4.6313601 0.86695999
2.9177301 -4.6368699 -0.28711501
2.8987501 -4.6066999 1.25658
2.90082 -4.6135702 1.46026
2.89131 -4.6180902 0.28554499
2.88603 -4.6150198 0.66833198
2.8852201 -4.61553 -0.66833198
2.89819 -4.6380701 -0.47848499
2.8694601 -4.5974498 1.2511801
2.8757601 -4.6309099 0.47691599
2.86467 -4.6166401 0.66711301
2.8594501 -4.6118202 0.859451
2.85888 -4.6108999 -0.47465
2.8566599 -4.6145101 -0.094731703
2.8402901 -4.58986 1.44628
2.8410101 -4.6053801 0.094452403
2.83763 -4.6052999 0.47325599
2.83917 -4.6113901 -0.66491902
2.83233 -4.6038799 -0.47290701
2.84182 -4.62293 -0.284394
2.80989 -4.5745602 1.43852
2.81215 -4.5925999 0.0939987
2.82147 -4.6096401 0.28324199
2.80983 -4.6050501 -0.28271899
2.79842 -4.58634 1.24038
2.78878 -4.5921502 0.28156701
2.7904799 -4.5967698 0.470467
2.7776401 -4.5791998 0.65760702
2.78005 -4.5867901 -0.46924701
2.7662399 -4.5694098 1.23318
2.7616899 -4.5654802 1.42972
2.7631099 -4.5877099 0.46854901
2.7547801 -4.5811 -0.46767801
2.73593 -4.5750299 0.279369
2.7348199 -4.5767999 0.46645799
2.7283001 -4.56951 0.65346301
2.72244 -4.5633101 -0.46488899
2.7356801 -4.5891399 -0.27999699
2.7054701 -4.55652 0.092497803
2.71383 -4.5742402 0.278741
2.7121201 -4.5768199 0.65322
2.7032299 -4.5636301 -0.65126997
2.6969099 -4.5566001 1.02922
2.7061999 -4.57412 -0.278532
2.6873 -4.5439701 1.21878
2.67816 -4.5321398 1.41056
2.6885099 -4.56601 0.277695
2.6844101 -4.5626798 0.463146
2.6760099 -4.5520401 0.64834499
2.67923 -4.55935 -0.64932001
2.67713 -4.5557699 0.83692402
2.65959 -4.5331602 1.21339
2.65622 -4.5437598 0.091869503
2.6544199 -4.5443201 0.27581099
2.65325 -4.5514302 0.83442199
2.64112 -4.5324402 1.01968
2.6498799 -4.5492902 -0.275915
2.63462 -4.5285501 1.4038301
2.6279399 -4.5370798 0.091520399
2.6319301 -4.5494699 0.45983401
2.6227 -4.5371599 0.64346999
2.61694 -4.5290198 -0.64225101
2.61994 -4.5342202 0.82941598
2.6068101 -4.5187702 1.20439
2.6140201 -4.53127 -0.091311
2.6056299 -4.5185499 1.39762
2.6078999 -4.5370998 0.091345899
2.60413 -4.5342102 0.27403101
2.59428 -4.5261998 0.82628697
2.5961201 -4.53124 1.0151
2.6015699 -4.5425901 -0.27434501
2.5831001 -4.5121698 1.20034
2.5882599 -4.5230098 -0.090961903
2.5745001 -4.5007901 1.38934
2.57917 -4.5235901 0.090892099
2.57724 -4.5257301 0.45565
2.57899 -4.5324702 0.640302
2.5654199 -4.5141201 -0.454256
2.5768199 -4.5360198 -0.27340299
2.5566599 -4.50419 -0.090403497
2.5515499 -4.5116801 0.090473302
2.5576701 -4.5261998 0.272461
2.5479 -4.5125899 0.45338401
2.5465701 -4.5120602 0.63615799
2.5457799 -4.5125098 -0.63615799
2.5369201 -4.5004802 -0.45199001
2.5444901 -4.51759 -0.27172801
2.52596 -4.4883499 1.38002
2.51741 -4.4988399 0.63298899
2.5176001 -4.50102 -0.63323301
2.5255201 -4.5151901 0.81940401
2.5151601 -4.50036 1.00213
2.50736 -4.4900699 1.18729
2.5095501 -4.4939899 -0.089845002
2.50369 -4.4853301 1.3764
2.5044301 -4.50143 0.089914799
2.4976599 -4.4984899 0.63177103
2.4891701 -4.4850402 -0.629821
2.49633 -4.4998002 0.81502402
2.49192 -4.49369 -0.44954899
2.4945099 -4.4983702 0.99983901
2.4822199 -4.48174 -0.0894261
2.4771099 -4.48913 0.089495897
2.4658401 -4.4797902 -0.62787098
2.46452 -4.4792299 -0.447283
2.4542201 -4.4660501 1.1764899
2.4567499 -4.4706602 -0.089042202
2.4535699 -4.4667101 1.36553
2.4516499 -4.4780302 0.089111999
2.4566801 -4.4909501 0.26827401
2.43837 -4.4685702 -0.445366
2.431 -4.4587598 1.1724401
2.4382601 -4.4739499 -0.088937499
2.42872 -4.4582901 1.36035
2.4245501 -4.4654698 0.088693097
2.4295599 -4.4784298 0.26701799
2.4295101 -4.4801898 0.445889
2.42378 -4.4733601 0.62470198
2.4277301 -4.4825101 -0.62592101
2.4144199 -4.4616599 0.98610097
2.42504 -4.48315 -0.26712301
2.4163401 -4.4689398 1.1728899
2.4094701 -4.45994 1.3582799
2.40326 -4.4633398 0.088483699
2.4119699 -4.4851398 0.44554001
2.40042 -4.4711299 0.80375999
2.3984699 -4.4675102 -0.44362301
2.3928001 -4.4644198 -0.088413902
2.3838501 -4.4495902 1.35259
2.3775599 -4.4565101 0.26471499
2.3887999 -4.4794598 0.44414601
2.37289 -4.4533801 0.61958402
2.3683801 -4.4467802 -0.61860901
2.3736501 -4.45856 0.80000597
2.37586 -4.4664698 -0.26513401
2.3470099 -4.4458599 0.79625201
2.34955 -4.4506698 -0.44031101
2.3556001 -4.4658999 -0.26461101
2.3412399 -4.4405599 1.15895
2.3294301 -4.4369202 0.0874715
2.3352499 -4.4517798 0.263459
2.33619 -4.4554501 0.44013599
2.33529 -4.45753 0.61787802
2.3204801 -4.4330201 0.79249698
2.3266101 -4.4447198 -0.438916
2.32095 -4.4357901 0.97312599
2.30562 -4.42906 0.087157302
2.30007 -4.4315901 -0.43682501
2.30322 -4.4414601 -0.26220301
2.2931399 -4.4239202 1.1504
2.2864799 -4.4299698 0.0870177
2.2867701 -4.4362302 0.43665001
2.2776501 -4.4299302 -0.26105201
2.26878 -4.4145699 1.1459
2.27614 -4.4308 -0.086947903
2.26436 -4.40975 1.3282599
2.26371 -4.4236798 0.086738497
2.2577901 -4.4216299 0.60959101
2.2543099 -4.4167199 -0.608859
2.25386 -4.4196301 0.96434897
2.24544 -4.4107399 1.32619
2.24283 -4.4208598 0.086529002
2.2412601 -4.4215999 0.25979599
2.2395301 -4.4200902 0.43351299
2.23171 -4.4103899 -0.60690898
2.23015 -4.4092102 -0.43229201
2.2349601 -4.4225502 -0.259691
2.2144001 -4.4124398 0.60617799
2.2108901 -4.4092698 0.78123403
2.2053499 -4.4001498 0.956716
2.21504 -4.4214001 -0.259168
2.19644 -4.3900199 1.31532
2.1988499 -4.4159999 0.431595
2.19362 -4.4112701 0.78029501
2.1868999 -4.3997002 -0.42985201
2.18804 -4.4058499 -0.25780699
2.17573 -4.3829699 1.1296999
2.1633501 -4.3868399 -0.60057199
2.1703401 -4.4029598 0.77747899
2.15516 -4.3779302 1.12655
2.1493499 -4.3892999 0.25613201
2.1538501 -4.4004502 0.42863199
2.1147299 -4.3224301 -0.76214898
2.1393099 -4.3765302 -0.59813499
2.1454201 -4.3909798 0.77403802
2.14291 -4.3858399 -0.42706299
2.1261899 -4.3573999 1.11936
2.1345401 -4.3764601 -0.084993199
2.13588 -4.3811498 1.306
2.13029 -4.3852 0.085097902
2.1202199 -4.3702898 0.42497101
2.10394 -4.3386798 -0.763713
2.1197701 -4.3771501 -0.42549399
2.11796 -4.37536 0.94488603
2.12255 -4.3867898 -0.25539899
2.1092701 -4.36129 1.1184601
2.1088099 -4.3642302 1.29875
2.1073999 -4.3807998 0.25477099
2.1058099 -4.3794599 0.42514601
2.08108 -4.3299699 -0.76089698
2.1017301 -4.3748899 0.59594101
2.1001799 -4.3755798 0.76871902
2.08898 -4.3580799 1.11576
2.09443 -4.3714199 -0.0846093
2.0843899 -4.3523998 1.2930599
2.07809 -4.3548498 0.084225297
2.0727899 -4.3535199 0.59204102
2.0763199 -4.3648601 -0.42287999
2.07901 -4.3744502 -0.253829
2.0653901 -4.3477402 1.1112601
2.06973 -4.35883 -0.084225297
2.0617199 -4.3439398 1.2884001
2.0494299 -4.34934 0.93458301
2.04356 -4.3408198 1.1076601
2.0562 -4.3696499 -0.084295101
2.0315101 -4.3348498 0.083562098
2.03684 -4.3501701 0.25173599
2.0437901 -4.3669901 0.42183399
2.0373099 -4.3571 0.59057897
2.0264599 -4.3358698 -0.58765399
2.0339899 -4.3539701 -0.420439
2.0306799 -4.3508501 -0.25163099
2.02403 -4.3405499 -0.083596997
2.0154099 -4.3497801 0.58862901
2.0071399 -4.33392 -0.58643502
2.0114999 -4.3453202 0.758394
2.0070601 -4.3357301 -0.417999
2.00582 -4.3350401 0.92847699
1.99725 -4.3443198 0.25058499
1.98913 -4.32865 0.41677901
1.9969 -4.3495698 0.58765399
1.9837199 -4.3228502 -0.58399802
1.98195 -4.3209801 -0.415907
1.98014 -4.323 1.09776
1.97953 -4.3236699 -0.083003603
1.96693 -4.3140402 0.082759298
1.9654 -4.3186598 -0.75151098
1.9701999 -4.3312101 0.58424199
1.96101 -4.3210201 1.09551
1.96112 -4.3232698 -0.082864001
1.95372 -4.32903 0.24890999
1.94691 -4.3199701 0.58180398
1.94516 -4.3241301 -0.248491
1.93393 -4.3011799 1.08876
1.93864 -4.3136702 -0.0825499
1.9323 -4.30158 1.26355
1.93023 -4.3130598 0.082480103
1.93393 -4.3274102 0.41468701
1.93117 -4.3232598 -0.74994701
1.9229701 -4.3089499 -0.57936698
1.91706 -4.3058 -0.0822706
1.91287 -4.3227501 -0.74869502
1.90422 -4.3092999 0.74619299
1.90686 -4.3193302 -0.247444
1.88249 -4.2986302 -0.57619798
1.8784 -4.2933602 0.91092199
1.87473 -4.2890501 1.08066
1.8757 -4.2912598 -0.0817471
1.8693399 -4.27876 1.25113
1.8633699 -4.2813702 0.081502698
1.8683701 -4.2969499 0.24556001
1.87025 -4.3053999 0.410678
1.85615 -4.2811098 -0.40823701
1.85712 -4.28335 0.90748799
1.86391 -4.3010602 -0.245665
1.85594 -4.2867699 -0.081537597
1.85133 -4.2781701 1.24906
1.8446701 -4.2832699 0.24440899
1.8388 -4.2799201 -0.40753999
1.83751 -4.2789798 0.90519798
1.83166 -4.2694802 1.07257
1.83781 -4.2858701 -0.081398003
1.83075 -4.2941999 0.40841201
1.81833 -4.2733402 0.73555499
1.81949 -4.2781501 0.90367103
1.80989 -4.2596998 1.0685199
1.81462 -4.2749801 1.2444
1.8006999 -4.2607698 0.24242
1.80795 -4.2841802 -0.736494
1.7968301 -4.2619801 -0.56791103
1.80108 -4.2720699 0.734303
1.79959 -4.2706199 -0.405449
1.7862099 -4.2471399 1.23457
1.78485 -4.26054 0.080630101
1.78689 -4.2737899 0.405274
1.77393 -4.2511301 -0.40300801
1.77823 -4.2614398 0.89756602
1.77411 -4.2557302 1.0644701
1.76861 -4.2677002 0.24210601
1.76287 -4.25806 -0.72992301
1.7560199 -4.2477899 -0.40213701
1.7588201 -4.25878 -0.241478
1.75255 -4.2456899 1.06042
1.7462 -4.2344999 1.22732
1.74366 -4.2451501 0.080106497
1.74536 -4.25352 0.240955
1.73404 -4.2343302 -0.561818
1.74277 -4.2577901 0.72867203
1.73506 -4.2410402 0.89069599
1.72419 -4.2483001 -0.72616899
1.719 -4.2418699 0.72491699
1.71951 -4.2452598 0.890315
1.71631 -4.23949 -0.23969901
1.71117 -4.22892 1.05322
1.7051899 -4.2396598 0.239489
1.70787 -4.2527499 -0.72585601
1.69903 -4.2350202 0.722727
1.69927 -4.2420402 -0.239489
1.69059 -4.2224998 1.05007
1.68741 -4.2166901 1.21697
1.68207 -4.2311502 -0.72116297
1.67714 -4.2230301 -0.55791801
1.6813101 -4.2357101 0.721789
1.67448 -4.2184801 -0.397082
1.67678 -4.2264299 0.88382697
1.68445 -4.2479401 -0.239489
1.67225 -4.2193098 1.04782
1.6725 -4.2221098 -0.079268798
1.65927 -4.2079902 0.078954697
1.66342 -4.2249999 0.39725599
1.66295 -4.2259698 -0.71928602
1.65627 -4.2176399 0.88077402
1.65484 -4.22048 -0.079129197
1.64764 -4.2237902 0.23760501
1.64317 -4.2188702 -0.71709597
1.63827 -4.2084599 -0.554506
1.63885 -4.2186399 -0.237187
1.63291 -4.2033501 1.04107
1.6269799 -4.2098598 0.078780197
1.62817 -4.2194901 0.39568701
1.62775 -4.2206001 -0.71647
1.62431 -4.21386 0.554506
1.62002 -4.2027502 -0.55304301
1.62307 -4.2150502 -0.39516401
1.61476 -4.1978302 1.03837
1.61533 -4.2014899 -0.078570701
1.61733 -4.2089 1.2081701
1.60873 -4.20403 0.078570701
1.60466 -4.20439 0.55255598
1.60112 -4.1951199 -0.551337
1.5932 -4.1831298 1.03343
1.59498 -4.1900101 -0.0782566
1.59443 -4.1907601 1.20144
1.58982 -4.19625 0.078326397
1.59141 -4.2115502 0.55279899
1.58778 -4.2041502 0.71177697
1.58171 -4.19031 -0.39185199
1.5835 -4.1972699 0.871997
1.59045 -4.2179198 -0.23624501
1.57932 -4.1883898 1.03343
1.58108 -4.1952701 -0.0782566
1.57207 -4.2024398 0.39254901
1.56689 -4.1953101 -0.54987401
1.55983 -4.1830802 0.86779898
1.5658799 -4.20154 -0.234988
1.56119 -4.1889501 1.0320801
1.55207 -4.1890402 0.077977397
1.5521801 -4.19384 0.23435999
1.55527 -4.2044401 0.39220101
1.5446301 -4.1824002 -0.54743701
1.55208 -4.2048202 0.70990002
1.53976 -4.1781802 1.02803
1.54471 -4.1938901 -0.078012303
1.53765 -4.17695 1.1926399
1.53395 -4.1871901 0.077837698
1.53711 -4.20263 0.39150399
1.52384 -4.17312 -0.54548699
1.52461 -4.1774998 -0.389063
1.52582 -4.1830702 0.86550999
1.52591 -4.1901202 -0.077837698
1.51592 -4.1831198 0.077663198
1.51565 -4.18923 0.38975999
1.50853 -4.1786599 0.70364201
1.49869 -4.1856799 0.233
1.4976701 -4.1851201 0.38888901
1.4928 -4.17382 -0.70207798
1.48862 -4.1690202 0.70113897
1.48871 -4.1692801 -0.38732001
1.48932 -4.1732798 0.86131197
1.49358 -4.18751 -0.233
1.4832 -4.1630001 -0.077139601
1.47351 -4.1680002 0.54280603
1.4747699 -4.1738701 -0.54353702
1.47735 -4.1834998 0.70270401
1.47216 -4.1688099 -0.38679701
1.46821 -4.1599398 0.85749602
1.46112 -4.1490698 1.17866
1.45681 -4.1553602 0.076860398
1.45894 -4.1637402 0.23122001
1.46183 -4.1766701 0.387146
1.4571 -4.1654902 -0.69894898
1.45109 -4.15063 0.53988099
1.45891 -4.1753302 0.70051402
1.45169 -4.1569901 -0.38522801
1.45109 -4.15762 0.85596901
1.44735 -4.14922 1.0145299
1.45153 -4.1635599 -0.076965101
1.43989 -4.15346 0.23038299
1.4366699 -4.1535501 0.53963703
1.4366699 -4.1535501 -0.53963703
1.43731 -4.1577401 0.69675899
1.43724 -4.1599002 -0.38505399
1.43602 -4.1587 0.85520601
1.43539 -4.1592398 -0.230592
1.43185 -4.15134 -0.076650999
1.42533 -4.1535802 0.076650999
1.42538 -4.1584601 0.23038299
1.4209599 -4.1526499 0.53890598
1.4170001 -4.1457901 -0.383311
1.4203 -4.1602001 -0.23038299
1.41215 -4.13869 1.00958
1.41348 -4.1449499 -0.076441497
1.4072 -4.1289101 1.16883
1.40473 -4.1500902 -0.69394302
1.39876 -4.1395998 0.69206601
1.40194 -4.15378 -0.229755
1.38676 -4.1349902 0.076127402
1.38934 -4.14748 0.229232
1.38776 -4.1451702 0.38243899
1.38177 -4.13447 -0.53525001
1.38243 -4.1388402 0.69112802
1.3817101 -4.1366901 -0.38156801
1.37695 -4.1248498 0.84528399
1.3804801 -4.1378102 -0.22860301
1.36704 -4.1335402 -0.68956298
1.36369 -4.1258402 0.533544
1.36611 -4.13801 0.690189
1.36124 -4.1329398 -0.075952902
1.35483 -4.11589 1.16106
1.35288 -4.1293702 0.075848199
1.3526 -4.1382899 -0.68956298
1.34302 -4.1138301 -0.53135002
1.3459899 -4.13025 -0.227661
1.33974 -4.1135302 0.99878299
1.34185 -4.1224499 -0.075673603
1.33986 -4.1187601 1.16054
1.33476 -4.1226501 0.075638697
1.33253 -4.1255798 0.379302
1.32689 -4.1154799 0.68487
1.31392 -4.0850201 0.99068397
1.32011 -4.10427 -0.075254798
1.3171999 -4.1248498 0.22692899
1.31335 -4.1177502 -0.68455702
1.31487 -4.12499 0.53159398
1.31419 -4.1278501 0.686122
1.30496 -4.1062999 0.99473399
1.30039 -4.1217999 0.22651
1.2977 -4.1157799 0.37755901
1.29659 -4.1147699 -0.68330598
1.2956899 -4.1144099 0.52964401
1.29184 -4.1071801 -0.37668699
1.28067 -4.1041799 0.075045303
1.28214 -4.1164799 0.37720999
1.28046 -4.1136198 -0.68236703
1.27483 -4.0980601 0.526963
1.27353 -4.0963898 -0.52671897
1.27324 -4.1005101 0.83459902
1.27232 -4.1025901 -0.074975498
1.26735 -4.0890899 1.14709
1.26587 -4.1045799 0.074975498
1.26231 -4.0981102 0.224731
1.26542 -4.1133099 0.376513
1.26449 -4.1102901 -0.68111598
1.25849 -4.1009598 0.83383501
1.25906 -4.1053801 -0.225045
1.25176 -4.0841198 0.98618501
1.24862 -4.0994101 0.074800998
1.24403 -4.0971398 0.52574402
1.24158 -4.09166 -0.52501303
1.24167 -4.0945401 0.677674
1.23728 -4.0903101 -0.074591599
1.23039 -4.0700998 1.13932
1.22797 -4.0826802 0.074417099
1.22694 -4.0896101 0.37355
1.2218 -4.0854001 0.82887399
1.22565 -4.1008902 -0.22431201
1.21804 -4.0780301 0.98258603
1.21341 -4.0651102 1.13673
1.2095799 -4.0756502 0.074207596
1.20858 -4.0879502 0.67517102
1.20585 -4.0813298 -0.372329
1.21076 -4.10322 -0.224207
1.20303 -4.07967 -0.074242502
1.19757 -4.0637598 1.13518
1.1955 -4.0777202 0.074172698
1.1971101 -4.0885 0.22326501
1.19159 -4.0775499 0.52160102
1.1942199 -4.0892 -0.523063
1.1943001 -4.0921402 0.67517102
1.18736 -4.0710101 0.82429498
1.19435 -4.09763 -0.223684
1.18426 -4.06565 0.97763699
1.18599 -4.0742502 -0.074068002
1.1803401 -4.08671 0.37215501
1.1783201 -4.0823798 -0.67298102
1.17389 -4.07236 -0.52038199
1.17799 -4.0865898 0.67360699
1.17477 -4.08079 0.82543999
1.17468 -4.0858402 -0.074207596
1.16615 -4.0588198 1.13156
1.1578799 -4.0620599 0.36954001
1.16315 -4.0805702 -0.67204201
1.15766 -4.06668 -0.51916301
1.15561 -4.06218 0.66891402
1.1507 -4.05299 0.97268802
1.15114 -4.05722 -0.073614299
1.14881 -4.0517201 1.12845
1.14791 -4.0756202 0.22190399
1.1460201 -4.07164 0.37006301
1.14569 -4.0732002 -0.670165
1.1365499 -4.0515299 -0.368146
1.12844 -4.0552802 0.073474601
1.12606 -4.06319 -0.51770103
1.1267 -4.0682402 0.66860098
1.12293 -4.0573902 -0.36831999
1.12099 -4.0531301 0.81742603
1.12212 -4.0599999 -0.220753
1.12119 -4.05937 -0.073509499
1.11382 -4.03543 1.12172
1.11304 -4.0574598 0.073439702
1.10593 -4.04814 -0.51526397
1.1104 -4.0645299 0.66734999
1.10322 -4.0465498 -0.21981101
1.10543 -4.0574698 -0.073404796
