# .PCD v0.7 - Point Cloud Data file format
VERSION 0.7
FIELDS x y z
SIZE 4 4 4
TYPE F F F
COUNT 1 1 1
WIDTH 855
HEIGHT 1
VIEWPOINT 0 0 0 1 0 0 0
POINTS 855
DATA ascii
4.9989901 -1.94903 -0.469421
4.99581 -1.9507999 -0.093614697
4.9915299 -1.95013 1.43593
4.9927402 -1.95864 0.093614697
4.9889698 -1.96823 -0.093614697
4.9992599 -1.98642 -0.47064099
4.9987898 -1.98724 1.04563
4.9973602 -1.98869 1.24173
4.9846201 -1.98463 -0.093649603
4.9784899 -1.9831899 1.43593
4.9839301 -1.9984699 0.65931302
4.9904499 -2.0031099 -0.470467
4.9918299 -2.0046799 1.04563
4.98879 -2.00649 -0.093859002
4.9805002 -2.0041699 1.43852
4.9862599 -2.0166099 0.281881
4.9879599 -2.02033 0.66077602
4.9886198 -2.0236399 -0.47099
4.9920702 -2.0250399 1.04716
4.9671102 -2.0169301 1.23768
4.9788399 -2.02372 1.44007
4.9841299 -2.0339799 0.093963802
4.9791999 -2.0339999 0.281881
4.99401 -2.0420899 0.47203499
4.9778299 -2.03953 -0.47064099
4.9723001 -2.0402999 1.2408299
4.9654102 -2.0374801 -0.093684502
4.9655499 -2.0476601 0.093754299
4.9812999 -2.0551801 0.28240499
4.9843798 -2.0605199 0.662238
4.9815302 -2.06036 0.85381901
4.9829001 -2.0629699 1.0483
4.98211 -2.0636599 -0.28261399
4.9633498 -2.0569 1.24038
4.9568801 -2.06335 0.0937194
4.9665298 -2.0724499 0.66077602
4.9789901 -2.07867 -0.66248202
4.9779601 -2.0792601 0.85444498
4.9671502 -2.0757699 -0.47099
4.9615402 -2.07342 1.0452501
4.9672899 -2.0778601 1.24308
4.95926 -2.0897801 0.66077602
4.9597001 -2.09302 1.0464
4.9510298 -2.0913999 1.2408299
4.95854 -2.0955901 -0.093963802
4.9555898 -2.1086299 0.66126299
4.9570498 -2.11027 -0.66150701
4.96139 -2.1141701 1.0483
4.9605999 -2.11485 -0.28261399
4.9401598 -2.10818 -0.093754299
4.9498701 -2.1133399 1.44214
4.9460301 -2.1198699 0.093928903
4.9646201 -2.1329701 0.66345698
4.9496498 -2.1275599 -0.66150701
4.9586902 -2.1345201 -0.28292799
4.9416699 -2.1282201 1.24218
4.9349799 -2.12534 -0.093789198
4.9321899 -2.12516 1.4390301
4.93714 -2.1354699 0.093893901
4.9523702 -2.14411 0.28282401
4.95052 -2.14536 0.47203499
4.9520502 -2.1470499 0.66272599
4.9524398 -2.1492701 0.85507101
4.9432802 -2.1463201 1.0475399
4.9435301 -2.1484799 1.2444299
4.9330301 -2.1449399 -0.093893901
4.9282799 -2.1438999 1.44007
4.94486 -2.1613801 0.28282401
4.93957 -2.16729 1.24533
4.9310098 -2.1645601 -0.0939987
4.9260802 -2.16342 1.44162
4.92943 -2.17311 0.094033599
4.9518299 -2.1871099 0.47360399
4.9311099 -2.1800201 -0.66199398
4.9375501 -2.1849301 -0.47238401
4.9324098 -2.18471 -0.28271899
4.9208999 -2.18064 1.24263
4.9167299 -2.1798201 1.4411
4.92874 -2.1944201 0.0941732
4.9201498 -2.1926501 0.2823
4.9289098 -2.19965 0.66272599
4.9353499 -2.2045901 -0.47290701
4.9320502 -2.2051799 -0.28313801
4.91682 -2.1993999 1.24353
4.9080901 -2.1965201 -0.093859002
4.9245801 -2.2049301 1.44576
4.9265199 -2.2140701 0.094277903
4.9226298 -2.2185199 -0.66296899
4.92696 -2.2214999 0.85600901
4.9321299 -2.22487 1.0517401
4.9197602 -2.22136 1.24623
4.90453 -2.2165401 1.44214
4.9078398 -2.22629 0.094068497
4.91784 -2.2318699 0.28303301
4.9242802 -2.23894 0.66418803
4.9256902 -2.2406199 -0.66443199
4.92381 -2.2428701 -0.28355601
4.9102101 -2.23771 1.24578
4.90066 -2.23439 1.44318
4.9172802 -2.2523501 0.283452
4.92805 -2.2593601 0.47430199
4.9096098 -2.25194 0.66321301
4.9278798 -2.2624099 0.85882503
4.9127102 -2.25752 -0.28334701
4.9070101 -2.2569699 -0.094277903
4.8928299 -2.2514901 1.44318
4.9021401 -2.26614 0.28303301
4.9089298 -2.2723999 0.66418803
4.9163699 -2.27793 0.85820001
4.9084201 -2.27633 -0.28355601
4.8955302 -2.28178 0.094277903
4.9179802 -2.2953801 0.47482401
4.90096 -2.28952 0.66418803
4.8951702 -2.2878599 -0.66345698
4.90277 -2.2934899 1.05212
4.8986402 -2.2926099 -0.283452
4.88867 -2.28898 1.24623
4.8947701 -2.3022599 0.094417498
4.9001198 -2.3099999 0.66516298
4.8982801 -2.3122699 1.05288
4.8996401 -2.3139601 -0.28397501
4.8877001 -2.30936 1.2480299
4.8758798 -2.3048201 -0.094138302
4.8829598 -2.3092101 1.44732
4.8943701 -2.3250699 0.28397501
4.8928299 -2.3253801 0.47395301
4.8992 -2.3304999 0.66613799
4.8934202 -2.3288 -0.665407
4.8976002 -2.33184 0.85913801
4.8901801 -2.32935 1.05288
4.87502 -2.3252699 -0.094277903
4.8731298 -2.3254099 1.4468
4.87678 -2.33551 0.094382599
4.8874602 -2.34587 0.66565001
4.8983302 -2.3532 0.86070299
4.88516 -2.3489699 -0.28408
4.88902 -2.3518701 1.25253
4.8739901 -2.35513 0.094487302
4.87924 -2.36292 0.66565001
4.8737998 -2.36344 1.05288
4.8720102 -2.36467 1.25028
4.8730602 -2.36623 -0.094557099
4.87114 -2.3747599 0.094591998
4.8723302 -2.38166 -0.66589397
4.8782401 -2.3856001 0.86007702
4.8701301 -2.38164 -0.47430199
4.8761001 -2.3856101 1.0551701
4.8654799 -2.38252 1.25073
4.8611798 -2.38147 -0.094487302
4.8668098 -2.3958199 0.284289
4.8750901 -2.40307 0.66735703
4.8510699 -2.3933401 -0.47325599
4.87462 -2.4070699 -0.284917
4.8474598 -2.3957601 -0.094382599
4.8666201 -2.4158101 0.47534701
4.86938 -2.4214201 0.86132801
4.8470998 -2.4103401 -0.47360399
4.8831301 -2.4303801 -0.28585899
4.85043 -2.42574 0.094661899
4.8597398 -2.4325199 0.284812
4.8608198 -2.43624 0.66759998
4.86796 -2.4419501 0.86258
4.8481898 -2.43309 1.05441
4.85291 -2.4386401 -0.0948015
4.8380098 -2.43221 1.45094
4.8490701 -2.44626 0.0948015
4.8512201 -2.44947 0.284812
4.8674202 -2.45871 0.47709101
4.8449302 -2.4526601 1.05556
4.83955 -2.45206 1.25253
4.8398299 -2.45432 1.4540499
4.8494101 -2.4677 0.094976
4.8426399 -2.4663899 0.284812
4.8659101 -2.47931 0.477788
4.84723 -2.47192 0.66808802
4.8450298 -2.4718599 -0.667844
4.84904 -2.4749701 0.86226702
4.8464298 -2.47364 -0.47604501
4.8520699 -2.4775901 1.05899
4.85741 -2.48139 -0.28585899
4.81708 -2.4618399 1.24893
4.8393202 -2.4742801 -0.094871297
4.8375602 -2.4851 0.28502199
4.8554602 -2.4953599 0.477613
4.8456402 -2.4946001 0.86320502
4.8342299 -2.4887199 -0.475696
4.8558202 -2.5019901 -0.28627801
4.8359499 -2.50565 0.28544
4.8439498 -2.51301 0.67003798
4.8417501 -2.5129399 -0.66979402
4.8439102 -2.5151401 0.86445701
4.82551 -2.5055799 -0.475696
4.8541498 -2.5225999 -0.28669599
4.8239799 -2.5079899 1.2552299
4.8414502 -2.53105 0.47796199
4.8316302 -2.52806 0.66955
4.8399801 -2.53351 -0.67076898
4.8351002 -2.5320301 0.86445701
4.82934 -2.5300901 1.05975
4.8417802 -2.5376799 -0.28648701
4.8238201 -2.52934 1.25748
4.8136401 -2.52615 1.45663
4.82687 -2.5416901 0.095220298
4.8218699 -2.5412099 0.28565001
4.8192601 -2.5430601 0.66906297
4.82552 -2.5485101 -0.47743899
4.8239498 -2.5487599 1.0605201
4.82936 -2.5527 -0.28627801
4.82728 -2.5537601 -0.095325001
4.8048 -2.5429399 1.45663
4.8165002 -2.5599 0.28585899
4.8186698 -2.5653701 -0.67028099
4.8242798 -2.5694399 0.86570799
4.8201098 -2.56722 -0.477788
4.8327498 -2.5761199 -0.28701001
4.8178201 -2.58005 0.095394798
4.8128099 -2.57953 0.28617299
4.8153901 -2.5841501 0.671013
4.81319 -2.5840499 -0.67076898
4.81287 -2.58497 -0.47796199
4.8164101 -2.58795 1.0628099
4.83253 -2.5977001 -0.287534
4.8143201 -2.60201 0.28680101
4.81112 -2.60462 -0.67174399
4.8020701 -2.6008 -0.477788
4.8234301 -2.6145501 -0.287534
4.7863302 -2.59552 1.25703
4.7846999 -2.5968001 1.4586999
4.8122301 -2.6226201 0.28722
4.8042002 -2.62151 0.67198801
4.8144498 -2.6292801 0.868837
4.8034501 -2.62328 -0.478834
4.7913399 -2.6177499 1.06128
4.81953 -2.6342499 -0.287848
4.7999301 -2.62571 -0.095499597
4.7922902 -2.63132 0.0954298
4.79954 -2.63748 0.28701001
4.80125 -2.6438799 -0.47953099
4.80124 -2.6482401 -0.095709004
4.7867498 -2.64134 1.46492
4.79533 -2.65481 0.095674098
4.7902999 -2.6542201 0.28701001
4.8077898 -2.665 0.48092499
4.7892499 -2.6569099 0.67247498
4.7835798 -2.65486 -0.67174399
4.7866802 -2.6587601 1.06433
4.7932401 -2.6788499 0.48040199
4.7846799 -2.67735 -0.67320597
4.7831998 -2.6776299 0.86821097
4.7774 -2.6787601 -0.0956043
4.78016 -2.6901901 0.095743902
4.7925401 -2.6993599 0.288266
4.7855902 -2.6965401 0.48057699
4.7782602 -2.6979101 1.06662
4.7810202 -2.7016699 1.26782
4.7889099 -2.7072301 -0.096023098
4.77248 -2.70784 0.095778801
4.79004 -2.72001 0.28868499
4.78655 -2.7191401 0.48162299
4.7732501 -2.7137899 0.67418098
4.7762198 -2.7165799 -0.67466903
4.7794499 -2.7195201 -0.48109999
4.7849698 -2.72488 -0.28858101
4.76648 -2.71544 1.26647
4.7776999 -2.72294 -0.095988199
4.75947 -2.71365 1.46802
4.7718501 -2.73176 0.28816199
4.76547 -2.73142 0.67442501
4.7632699 -2.7312601 -0.67418098
4.7733898 -2.7381699 -0.48144799
4.7627101 -2.73315 1.06739
4.7667699 -2.7365899 -0.288057
4.7655902 -2.74809 0.096023098
4.76401 -2.7493899 0.288266
4.76793 -2.7549901 0.67613101
4.7724199 -2.7598 -0.48232001
4.7473998 -2.7486501 1.26647
4.7628798 -2.7687199 0.096162803
4.7646999 -2.7731199 0.48232001
4.7579298 -2.7736299 0.87227899
4.7604699 -2.7762301 1.0712
4.76998 -2.7828801 -0.28941801
4.76193 -2.79269 0.28931299
4.7571402 -2.7932301 0.67734998
4.75844 -2.7962301 0.874156
4.7491202 -2.7918601 -0.481971
4.7406001 -2.78686 1.06891
4.7705698 -2.8055899 -0.29004601
4.7294402 -2.78474 1.47061
4.7451601 -2.8029301 0.096197702
4.7573099 -2.81234 0.28962699
4.7571402 -2.8178501 0.87572002
4.7462001 -2.81249 -0.48266801
4.7533798 -2.81898 -0.28962699
4.7449298 -2.8150899 -0.096302398
4.72966 -2.8071499 1.47372
4.7348499 -2.8203001 0.096197702
4.7418199 -2.82669 0.28931299
4.7502999 -2.83287 0.48388901
4.73703 -2.8271999 0.67734998
4.7297201 -2.8239601 -0.67637497
4.74441 -2.83497 -0.48354
4.7435098 -2.8355601 -0.28962699
4.7226601 -2.8264501 1.47475
4.7302198 -2.8422 0.28920901
4.7467198 -2.8543701 0.484586
4.7436299 -2.8559 0.87697202
4.7430201 -2.8566599 -0.48441201
4.7370701 -2.8541999 1.07502
4.7144098 -2.8427899 1.27097
4.7226901 -2.8489101 1.47786
4.72931 -2.86304 0.28973201
4.7343402 -2.8740001 -0.29025501
4.7168999 -2.86566 -0.096337304
4.7209201 -2.8782699 0.096511804
4.7244 -2.8826499 0.29004601
4.7154698 -2.8828499 -0.48354
4.70857 -2.8831501 -0.096372202
4.7108498 -2.8947301 0.096511804
4.7262201 -2.90645 0.29077899
4.7192798 -2.9033201 0.48475999
4.71451 -2.9026501 0.67978698
4.70961 -2.9030399 1.0754
4.7192602 -2.91013 -0.29056901
4.6898098 -2.89536 1.47682
4.7058201 -2.91432 0.096616499
4.7109499 -2.91977 0.290465
4.7192798 -2.92607 0.48580599
4.70435 -2.91909 0.67978698
4.7038398 -2.91991 -0.67978698
4.7121501 -2.9262199 -0.48528299
4.69348 -2.91802 1.27592
4.7104001 -2.9296899 -0.096825898
4.6928 -2.9198699 1.48096
4.7012401 -2.93538 0.290465
4.7075901 -2.9439199 0.68173701
4.6902499 -2.9342101 -0.67930001
4.7086701 -2.9468701 -0.48598
4.7041998 -2.94522 1.07883
4.68822 -2.93749 1.27727
4.7006602 -2.9452901 -0.096825898
4.6929102 -2.9415801 1.4840699
4.6978002 -2.9595101 0.68173701
4.6949801 -2.96117 -0.485632
4.7025599 -2.9670899 -0.29140699
4.6886601 -2.9606099 -0.096791103
4.6890702 -2.97118 0.096895799
4.6872101 -2.9734499 0.485632
4.6869302 -2.9767101 -0.68173701
4.6834798 -2.9756701 0.87884903
4.69134 -2.9818101 -0.48632899
4.6923299 -2.98244 1.08074
4.7022901 -2.9899199 -0.29203501
4.6799798 -2.97803 -0.096825898
4.6803598 -2.98861 0.096930698
4.6837201 -2.99651 0.68271202
4.6865401 -2.99947 -0.6832
4.6760602 -3.0123601 0.291511
4.6710401 -3.0125799 0.682468
4.6786599 -3.01982 0.88197798
4.6791101 -3.02127 1.0826499
4.72859 -3.0555501 1.29977
4.6848402 -3.04353 0.48876899
4.6721401 -3.0364399 0.68417501
4.6843801 -3.0478899 -0.48894399
4.6729498 -3.04161 1.0838
4.67803 -3.0460801 -0.29255801
4.6681199 -3.0407901 -0.097244799
4.6659598 -3.0568099 0.68490601
4.6670499 -3.05985 -0.48824599
4.6698198 -3.0768399 0.29308099
4.6573601 -3.07096 0.48807201
4.6574602 -3.07336 -0.68514901
4.6539102 -3.07219 0.88322902
4.65521 -3.0742099 -0.48807201
4.6755099 -3.0899601 -0.29370901
4.6589899 -3.08021 -0.097489104
4.6491499 -3.0842099 0.097384401
4.6571102 -3.0929999 0.48911801
4.6555099 -3.09428 0.68636799
4.65662 -3.09619 -0.68661201
4.6563201 -3.0971701 0.885732
4.65487 -3.1008899 -0.097628802
4.6466699 -3.1059799 0.097558998
4.6482201 -3.10936 0.29308099
4.66189 -3.1243999 0.888861
4.6523199 -3.12269 -0.097803302
4.6440902 -3.1277599 0.097733498
4.6370802 -3.1289301 0.68685597
4.6348901 -3.1286299 -0.68661201
4.6484098 -3.1413 -0.29402301
4.63976 -3.1484499 0.097873099
4.6363101 -3.1484699 0.29370901
4.6392698 -3.1540301 0.688806
4.63833 -3.15576 0.88854802
4.6354499 -3.1538 -0.490513
4.63691 -3.1559701 1.0902801
4.6287398 -3.1646199 0.097873099
4.63519 -3.1714001 0.294337
4.6233301 -3.16448 0.49016401
4.6380501 -3.17693 0.69026798
4.6325898 -3.1743701 -0.68953699
4.6289101 -3.1730399 0.888861
4.6204 -3.18859 0.68929303
4.6280098 -3.19504 -0.690512
4.6324401 -3.19929 0.89167702
4.6147599 -3.1882701 1.0902801
4.6247101 -3.19872 -0.098152302
4.6098199 -3.1991401 0.097942904
4.6125002 -3.20697 0.68978101
4.6277299 -3.21995 0.892928
4.6195998 -3.2154901 -0.49243
4.6068301 -3.2066 1.09105
4.6150198 -3.22667 0.098292001
4.6142902 -3.2321601 0.69173002
4.6095099 -3.2336099 1.09448
4.6152101 -3.2388101 -0.29548901
4.6146002 -3.2516301 0.098536298
4.6067801 -3.2473199 0.29538399
4.6041799 -3.2479 0.492953
4.6002202 -3.2487099 -0.69148701
4.6068001 -3.25456 -0.493476
4.5998001 -3.2508099 1.09486
4.5974898 -3.25159 -0.098292001
4.60779 -3.2758 0.69416797
4.5937901 -3.26947 1.09601
4.5874801 -3.27947 0.098431602
4.5949302 -3.28844 0.49434701
4.5963302 -3.2918601 0.69416797
4.6005902 -3.2961299 -0.69489902
4.6005602 -3.2960999 0.89636999
4.5991101 -3.2962899 -0.49504501
4.5775599 -3.2820499 1.09486
4.5931201 -3.29563 -0.098675899
4.5925398 -3.3085899 0.29664001
4.59797 -3.31494 0.49591601
4.58919 -3.3134799 -0.49521899
4.5777998 -3.3052599 1.09753
4.5901198 -3.3153701 -0.296745
4.5880699 -3.31633 -0.098815501
4.59443 -3.3368299 0.496788
4.5796599 -3.3285401 0.69514298
4.5816498 -3.3324299 0.89730799
4.5783501 -3.33125 1.10059
4.57266 -3.33077 -0.098745704
4.5735898 -3.3449099 0.29695401
4.57476 -3.3519001 0.898247
4.5771999 -3.3536899 -0.49643901
4.5839901 -3.36112 -0.297896
4.5670099 -3.36217 0.098990098
4.5715299 -3.36796 0.297582
4.5725698 -3.3748901 0.90012401
4.5704498 -3.39803 -0.69928598
4.56493 -3.39516 0.90106302
4.5604901 -3.39309 -0.497311
4.5514898 -3.38763 1.10288
4.5502501 -3.4015501 0.099164598
4.5685401 -3.4189501 0.499228
4.5641198 -3.4193699 0.90325302
4.5549898 -3.41377 -0.49800801
4.5553398 -3.4165201 -0.29842001
4.5517302 -3.42624 0.099443801
4.5619502 -3.43768 0.499751
4.5440502 -3.4266701 0.69879901
4.5472202 -3.42906 -0.69928598
4.5496001 -3.4321001 0.90262699
4.5471201 -3.43273 1.10746
4.54316 -3.44594 0.29883799
4.5574198 -3.46679 -0.30009401
4.5378399 -3.46944 0.499751
4.5436602 -3.4764099 0.70245498
4.5406098 -3.4765799 0.905756
4.5430899 -3.48226 -0.29999
4.5229201 -3.4806001 0.099618301
4.53896 -3.4942 0.300199
4.5293198 -3.4918201 0.70221102
4.5381398 -3.4998901 -0.70367402
4.54252 -3.5032699 0.908571
4.5324898 -3.49932 -0.30009401
4.5310798 -3.49949 -0.099932499
4.5177102 -3.50682 0.70221102
4.5302601 -3.5191 0.908571
4.5261798 -3.5172 -0.50149399
4.5219898 -3.51774 -0.100002
4.5211902 -3.5285299 0.100107
4.5229402 -3.5311601 0.300722
4.5254798 -3.5407801 -0.50271398
4.5220799 -3.5394001 1.11623
4.51372 -3.5494001 0.30093199
4.5171399 -3.5559101 0.70586699
4.5056 -3.5481 -0.70416099
4.50776 -3.55108 0.90888399
4.5115299 -3.55532 -0.50253999
4.50422 -3.55339 -0.100142
4.50804 -3.56791 0.100351
4.51157 -3.5745499 0.50358599
4.5171399 -3.5815201 0.70781702
4.50771 -3.5766101 0.91138703
4.5053301 -3.57601 -0.50323701
4.4987998 -3.5720999 1.1166101
4.5011902 -3.57656 -0.100351
4.4933701 -3.5831599 0.100316
4.5069399 -3.59656 0.30218801
4.5093398 -3.5997601 0.50480598
4.5039802 -3.5980599 0.70781702
4.50383 -3.6005099 0.91326499
4.5046401 -3.6024499 -0.504632
4.5065999 -3.60659 -0.30250201
4.4974098 -3.6005299 -0.100561
4.50699 -3.625 0.50602603
4.4830298 -3.60832 -0.706599
4.4973898 -3.62117 0.91451597
4.4986401 -3.62606 -0.302816
4.4879298 -3.6187201 -0.100631
4.4885702 -3.63218 0.302607
4.4910898 -3.63941 0.70976698
4.4818401 -3.6319101 -0.708305
4.4914999 -3.6410401 0.91576701
4.49085 -3.6418099 -0.50585198
4.4840102 -3.6375699 1.12234
4.5005498 -3.6522801 -0.303758
4.48212 -3.6386199 -0.10077
4.4888 -3.65576 0.101049
4.4867001 -3.6566601 0.303339
4.4982901 -3.6674099 0.50776899
4.4925299 -3.6679399 0.91858298
4.49615 -3.6735101 -0.304281
4.4852901 -3.6790099 0.101259
4.4900799 -3.6868801 0.50829202
4.4839802 -3.6858001 -0.71269202
4.4758301 -3.68172 1.1265399
4.4674101 -3.67872 -0.101015
4.4569998 -3.68191 0.10091
4.4732599 -3.70192 0.71293598
4.47153 -3.70311 -0.50794399
4.4614401 -3.69607 1.12615
4.4780798 -3.71118 -0.30480501
4.4668598 -3.70451 -0.101294
4.4579601 -3.7089601 0.101224
4.45755 -3.7191701 1.12844
4.4707799 -3.73418 -0.101678
4.45187 -3.7368801 0.71366698
4.46277 -3.7513499 -0.30553699
4.4496698 -3.7576001 0.30522299
4.4539599 -3.7692201 1.1341701
4.4386802 -3.77227 0.101678
4.4486899 -3.7834599 0.306061
4.4478102 -3.78405 0.51090699
4.4416399 -3.7828 -0.71634799
4.4451699 -3.7871499 -0.51090699
4.4405599 -3.7885799 -0.101887
4.42907 -3.7975099 0.71634799
4.4260502 -3.79895 1.13379
4.42066 -3.8131199 0.30595601
4.4393902 -3.8306201 0.512999
4.4232998 -3.8194399 0.71756703
4.4317098 -3.8294001 0.92765599
4.4250598 -3.82635 -0.306584
4.4276099 -3.83126 -0.102201
4.4215899 -3.8382101 0.102201
4.4133501 -3.83377 0.306375
4.4248099 -3.8504901 -0.51317298
4.4245901 -3.85167 1.14027
4.4202399 -3.8519499 -0.102341
4.4202099 -3.86415 0.102481
4.4119701 -3.8596699 0.307212
4.4219098 -3.8724599 0.72171003
4.4170299 -3.8722601 1.1418
4.4147601 -3.87164 -0.307735
4.4067702 -3.8673501 -0.102341
4.40519 -3.8782401 0.102446
4.41046 -3.8856101 0.30804899
4.40769 -3.8886399 -0.72171003
4.40766 -3.8899801 0.93109798
4.39923 -3.88801 -0.102481
4.3977399 -3.90587 0.72219801
4.4059601 -3.9145501 -0.72365999
4.4043899 -3.91452 0.93328798
4.3991299 -3.9098499 -0.514916
4.3928199 -3.9056201 1.14256
4.4085202 -3.9209499 -0.309201
4.3854699 -3.91555 0.10262
4.3885198 -3.9251699 0.722929
4.4039402 -3.94173 0.936104
4.3913999 -3.9305 -0.51561302
4.3850098 -3.9261601 1.1440901
4.3806901 -3.94577 0.72390401
4.3844199 -3.9505301 -0.724635
4.3901601 -3.9570799 0.936104
4.3746099 -3.9486001 -0.102864
4.3828502 -3.9727299 0.51753098
4.3764901 -3.9711399 -0.72561002
4.37924 -3.97504 0.93673003
4.37609 -3.9749601 -0.309829
4.3671799 -3.96825 1.3623
4.3652401 -3.96788 -0.102969
4.3744302 -3.9916101 0.310352
4.3748398 -3.9933801 0.51822799
4.37502 -3.99634 0.72755998
4.3602901 -3.9856801 -0.51683402
4.3726301 -3.9983599 1.15172
4.3769202 -4.0036898 -0.31087601
4.3498101 -3.9830699 1.58035
4.3692999 -4.0149598 0.31097999
4.3610401 -4.01159 0.72755998
4.3691101 -4.0204201 -0.72902298
4.3639398 -4.0170698 -0.51892501
4.3586502 -4.0135999 1.15172
4.36586 -4.0216498 -0.31108499
4.3516998 -4.0240798 0.103458
4.3499298 -4.02949 0.72804803
4.3550501 -4.0356398 -0.72902298
4.3649001 -4.0461898 0.94267398
4.3572001 -4.0390501 -0.51979703
4.3575702 -4.0408101 1.15516
4.35252 -4.03895 1.37085
4.3445501 -4.03438 1.58863
4.3464098 -4.04742 0.103667
4.3474498 -4.05548 0.72999698
4.34093 -4.0508199 -0.72902298
4.3464198 -4.0573602 0.94173598
4.35181 -4.0623899 -0.52084303
4.34267 -4.0581102 1.3722
4.3481102 -4.0788698 0.312446
4.3404999 -4.0774298 0.73121601
4.355 -4.0953398 1.16203
4.3334398 -4.0964999 0.52171397
4.3421001 -4.1075602 -0.73389697
4.34022 -4.1072202 0.94642901
4.3399701 -4.1084099 1.1616499
4.3290901 -4.1009798 1.3767
4.3312402 -4.1044502 -0.104156
4.3218899 -4.10849 0.104086
4.3369002 -4.1256399 0.31370199
4.3284602 -4.1219301 0.73389697
4.33636 -4.1308999 -0.73536003
4.3284998 -4.1248598 -0.52310902
4.3241801 -4.12218 1.16126
4.3122702 -4.11657 1.59743
4.3176298 -4.1332402 0.10433
4.3224702 -4.1407599 0.31370199
4.3313498 -4.1507101 0.52485198
4.3197699 -4.1425099 0.73487198
4.3299699 -4.1552 0.95049602
4.31741 -4.14604 -0.31370199
4.3116002 -4.1419001 1.3803
4.3168998 -4.1484499 -0.104505
4.3123002 -4.1599798 0.31401601
4.31528 -4.1672201 0.73657799
4.3131299 -4.1665902 -0.73633498
4.3140202 -4.16891 0.95018297
4.3210902 -4.1757398 -0.52572298
4.3144002 -4.1721902 -0.31453899
4.3009601 -4.1620998 -0.10447
4.3063502 -4.1833601 0.31464401
4.3179798 -4.1961198 0.52676898
4.3099399 -4.1926999 -0.73828501
4.30652 -4.1908398 0.951747
4.3098202 -4.19698 -0.315272
4.2979298 -4.1868601 1.38525
4.29356 -4.1840601 -0.104645
4.2924399 -4.1844301 1.60623
4.3033099 -4.2111702 0.52676898
4.3094602 -4.2216101 -0.740722
4.2946801 -4.2086 -0.52607203
4.3108301 -4.2273798 -0.316423
4.2944198 -4.21276 1.38885
4.2946301 -4.2144299 -0.105029
4.2865801 -4.21977 0.104994
4.2941098 -4.2301402 0.3159
4.2985201 -4.23596 0.52798897
4.3045902 -4.2463799 -0.742428
4.2968402 -4.2402201 0.956128
4.2969799 -4.2403598 -0.52816403
4.28511 -4.2301202 1.1704201
4.2866201 -4.23457 1.3911
4.2823501 -4.2333102 1.61348
4.2803502 -4.2431502 0.105203
4.30023 -4.2733002 0.960195
4.28263 -4.25878 -0.31652799
4.2729602 -4.2684798 0.31652799
4.29562 -4.2926202 0.53130102
4.2776499 -4.27914 -0.74291599
4.2838898 -4.28689 0.95988202
4.2832599 -4.2892499 -0.31767899
4.2610898 -4.2685299 1.39245
4.27318 -4.29562 0.105762
4.2730799 -4.3060198 0.96082097
4.2806702 -4.3151798 1.1814899
4.2621102 -4.3009701 -0.105692
4.2669501 -4.3239198 0.53147602
4.27072 -4.33077 0.74681503
4.2705002 -4.33357 0.96363598
4.2544198 -4.3217802 1.4001
4.2500901 -4.33248 0.105936
4.26438 -4.3516002 0.53304499
4.2571602 -4.3502998 -0.53252202
4.2518201 -4.3463602 1.18187
4.2590599 -4.3552899 -0.319249
4.24967 -4.3502402 1.6295201
4.24611 -4.3587499 0.106215
4.25528 -4.37886 0.96707797
4.2516699 -4.3751402 -0.53374201
4.2460899 -4.3755002 -0.106425
4.2433801 -4.3864799 0.106529
4.24858 -4.3995299 0.75095898
4.24683 -4.4008002 0.968642
4.2479601 -4.4050398 -0.32071501
4.2349501 -4.3946199 -0.106529
4.2379599 -4.3992801 1.63677
4.2447901 -4.4233298 0.53635597
4.2386899 -4.4200702 0.75193399
4.2296801 -4.41221 -0.750471
4.2320499 -4.4162202 -0.53513598
4.24681 -4.4331799 1.19332
4.2260098 -4.4145498 1.41089
4.2195802 -4.4093699 -0.106529
4.2252498 -4.4168401 1.63781
4.22369 -4.4275699 0.106809
4.2370701 -4.44315 0.32176101
4.21699 -4.4298201 -0.75095898
4.2372098 -4.4510598 0.97333503
4.2275901 -4.4425101 -0.53653097
4.2326698 -4.4493999 1.1937
4.2228498 -4.4421802 -0.106983
4.2105799 -4.43082 1.63781
4.2233901 -4.4629898 0.53757697
4.2297902 -4.4744401 0.97521299
4.2246299 -4.4705501 1.19561
4.2123199 -4.4637599 1.64454
4.2098999 -4.47369 0.107228
4.1813002 -4.45263 -0.74998403
4.2184 -4.4952898 1.19828
4.21415 -4.4923201 -0.322808
4.2020001 -4.4840798 1.64661
4.2147398 -4.5102801 0.107751
4.2214599 -4.5222101 0.541237
4.20578 -4.5085702 0.757052
4.2119198 -4.5183101 0.97834098
4.2174101 -4.5257802 1.20248
4.21206 -4.5216198 -0.32385501
4.2006302 -4.5125098 -0.107612
4.1981702 -4.5114398 1.65127
4.2139401 -4.54109 0.108135
4.2056499 -4.5369201 0.541237
4.2115998 -4.5465298 0.760952
4.2028298 -4.5402298 0.97990602
4.2098098 -4.5509601 -0.324902
4.1875601 -4.5300798 -0.107681
4.1912799 -4.54842 0.107961
4.19947 -4.5605001 0.324902
4.1949801 -4.5636001 0.98178297
4.1982002 -4.5703001 1.20629
4.1826801 -4.5725999 0.10817
4.1972699 -4.59338 0.544375
4.1940598 -4.5963001 -0.544375
4.1879001 -4.5927701 -0.325739
4.1772799 -4.5827298 1.43159
4.1741099 -4.5808601 1.66058
4.1822901 -4.6027298 0.108554
4.1757598 -4.60361 0.76314598
4.1908698 -4.6235099 0.98835301
4.1710601 -4.6097298 1.66576
4.17556 -4.6309199 0.32678601
4.1912498 -4.64996 0.54768699
4.1758599 -4.6410198 1.21355
4.1939402 -4.6627498 -0.32867
4.1616201 -4.6284499 1.43699
4.1613998 -4.6314502 1.66835
4.1650801 -4.6600199 0.98991698
4.17099 -4.66991 -0.32814601
4.1524701 -4.6671901 0.109043
4.1592698 -4.6863499 0.99242002
4.15939 -4.68648 -0.54821002
4.1563902 -4.6847501 1.21736
4.16924 -4.7008801 -0.32929799
4.1524801 -4.68363 1.4450901
4.1580901 -4.6916099 -0.109427
4.1379299 -4.6705098 1.67197
4.1414499 -4.6876502 0.109182
4.1620998 -4.7160001 0.55030102
4.1438298 -4.7068801 1.44779
4.1356401 -4.7008801 1.67767
4.1408901 -4.7201099 0.109601
4.1521802 -4.7379899 0.55117297
4.1392498 -4.7265601 0.771433
4.1485701 -4.74054 0.99773902
4.1462498 -4.7378898 -0.55082399
4.1416798 -4.7343402 1.2227
4.1442099 -4.7388902 -0.32992601
4.1325102 -4.72718 1.44958
4.1268301 -4.72401 1.68077
4.1296401 -4.7405701 0.109741
4.1473899 -4.7659798 0.552742
4.1331501 -4.7529702 0.77338302
4.1371799 -4.7609601 0.99899101
4.1414499 -4.7658701 -0.55239302
4.1392899 -4.76507 1.2269
4.1249199 -4.7518802 1.4527299
4.1297002 -4.7590599 -0.109985
4.1280398 -4.7588201 1.68802
4.12746 -4.7715902 0.110125
4.1333299 -4.7834501 0.55308998
4.1307998 -4.7838898 0.77606398
4.13344 -4.7903299 1.00212
4.1328902 -4.7913799 1.22995
4.1184902 -4.77806 1.4563299
4.1182899 -4.77951 -0.110125
4.1139202 -4.7761302 1.68905
4.1205001 -4.8023801 0.55361301
4.1244102 -4.8137298 1.0039999
4.1131902 -4.8057299 1.46038
4.10572 -4.8139801 0.110439
4.1031599 -4.8246002 1.2311
4.1090102 -4.8348999 1.46488
4.1044002 -4.8466001 0.110858
4.1041598 -4.84975 0.33296099
4.1139002 -4.8629699 0.55727398
4.0984201 -4.8481102 0.77947599
4.1015 -4.8551898 -0.556054
4.0933599 -4.8507099 1.46533
4.0885901 -4.8484802 1.69941
4.09518 -4.87008 0.111067
4.0936298 -4.8716898 0.33348501
4.1135602 -4.89714 0.55953997
4.09551 -4.8791099 0.782157
4.0971298 -4.88623 1.2395
4.0883899 -4.881 -0.111137
4.0865202 -4.8804998 1.7056201
4.0896902 -4.89816 0.111381
4.0893998 -4.9012799 0.33453101
4.0962501 -4.9147301 0.78557003
4.0896602 -4.9103098 1.01213
4.0866599 -4.93817 0.78703201
4.0847201 -4.9393301 -0.56076002
4.0766702 -4.9313598 1.24369
4.0809598 -4.9418001 -0.11187
4.0597301 -4.91785 1.70872
4.0719199 -4.9554701 0.78751999
4.0681601 -4.9561801 1.2463599
4.0781898 -4.97018 -0.33693901
4.0672598 -4.9586201 1.48063
4.06601 -4.9747801 0.112149
4.0715699 -4.9833498 0.337253
4.0813198 -4.9988499 0.56459498
4.0671501 -4.9850402 0.78995699
4.04812 -4.9723401 1.71804
4.0439501 -4.9938598 1.01776
4.0392399 -4.9916101 -0.33651999
4.0199299 -4.9695201 1.47568
4.0311098 -4.9851198 -0.111905
4.0069599 -4.9712 0.111451
4.00911 -4.9774299 0.33495
3.9943099 -4.9679198 1.00963
4.0067801 -4.987 -0.335264
