# .PCD v0.7 - Point Cloud Data file format
VERSION 0.7
FIELDS x y z
SIZE 4 4 4
TYPE F F F
COUNT 1 1 1
WIDTH 607
HEIGHT 1
VIEWPOINT 0 0 0 1 0 0 0
POINTS 607
DATA ascii
5.3473501 1.69833 0.490861
5.3400002 1.69292 -0.68783098
5.3447299 1.6934 -0.490513
5.3288398 1.68529 1.29032
5.32377 1.68164 1.49597
5.3418398 1.67608 0.489815
5.34938 1.6763901 0.68831801
5.35535 1.67724 -0.68904901
5.35251 1.67533 -0.49068701
5.3384099 1.66784 1.2912199
5.3561401 1.67235 -0.097942904
5.3680701 1.66478 0.29454699
5.36098 1.66155 0.49103501
5.34761 1.65536 0.687343
5.3559799 1.6559 0.88792199
5.3664398 1.64581 0.097977802
5.3659201 1.6446199 0.294128
5.3743701 1.64516 0.49173301
5.3643899 1.63597 -0.293919
5.3667002 1.63565 1.29527
5.36589 1.62415 0.293814
5.3877001 1.6287 0.49243
5.3926601 1.62608 -0.49277899
5.3812599 1.62163 -0.29454699
5.3864799 1.62114 -0.098187201
5.3612499 1.61253 1.50012
5.3854399 1.6085401 0.49173301
5.3784299 1.60236 0.888861
5.3980198 1.6081899 -0.49277899
5.3758402 1.59852 1.29482
5.3705502 1.59491 1.50115
5.3926902 1.5933 0.098152302
5.3905101 1.5906 0.29454699
5.4006701 1.5895 -0.69124299
5.3896699 1.58525 0.889799
5.3902202 1.58541 -0.49155799
5.39078 1.58455 1.09219
5.39958 1.58407 -0.098222099
5.4075398 1.57513 0.29517499
5.4003601 1.5720201 0.49208099
5.4176202 1.57397 -0.69270498
5.4074702 1.56897 -0.49260399
5.3999801 1.56475 1.2979701
5.41468 1.5679899 -0.098396704
5.37784 1.5563101 1.50012
5.4137502 1.55441 0.49277899
5.4173598 1.5534 -0.69197398
5.4138999 1.5513901 0.89198899
5.4186602 1.55173 -0.49312699
5.4038701 1.54647 1.0925699
5.4074898 1.54649 -0.294756
5.3943901 1.54071 1.50322
5.4151201 1.53743 0.098256998
5.4032998 1.53204 0.294337
5.4172902 1.53192 -0.69124299
5.4119501 1.52939 0.89073801
5.4298 1.53443 -0.49364999
5.40728 1.52501 1.29707
5.4000001 1.52092 1.50322
5.42623 1.5201401 0.098361798
5.4124599 1.51424 0.29454699
5.4242501 1.51448 0.69148701
5.4359899 1.51673 -0.692949
5.4293699 1.51386 -0.49312699
5.43155 1.51345 1.09601
5.4163299 1.50717 1.2979701
5.45082 1.50038 -0.69416797
5.4260402 1.49356 0.89136398
5.4307799 1.49384 -0.49277899
5.4437599 1.49435 -0.098536298
5.4120898 1.48464 1.50374
5.4380498 1.48157 0.29538399
5.4387698 1.47972 0.49312699
5.45959 1.48334 -0.694655
5.4369402 1.4761699 0.89230198
5.4397998 1.47592 -0.49312699
5.45473 1.47691 -0.098641001
5.4246998 1.46776 1.50581
5.4468002 1.46456 0.29559401
5.4376402 1.45803 0.69124299
5.4589901 1.4627301 -0.69392401
5.4411602 1.45592 1.09486
5.4411201 1.45489 -0.29517499
5.4596 1.45881 -0.098641001
5.4460802 1.444 0.29528001
5.4718299 1.44879 0.49521899
5.4443598 1.4405 0.69148701
5.44877 1.43963 0.89261502
5.4670601 1.44344 -0.49469599
5.4611402 1.44188 1.0979199
5.4594302 1.44041 -0.295908
5.4514198 1.4372801 1.3015701
5.4646602 1.43975 -0.098641001
5.4746799 1.43013 0.49504501
5.4570398 1.42349 0.69246203
5.4707398 1.4260401 -0.69416797
5.4582901 1.41873 1.30202
5.4663501 1.40352 0.89386702
5.4728999 1.4052 -0.49434701
5.4745798 1.4015599 -0.098641001
5.49788 1.3922 -0.69636101
5.4731302 1.38491 0.89417899
5.4797001 1.38658 -0.49452201
5.4721398 1.3836499 1.09715
5.4858298 1.38609 -0.296536
5.5455298 1.4001499 1.32046
5.4815998 1.37383 0.098641001
5.5084801 1.37444 -0.69709301
5.4913502 1.36915 0.89636999
5.4807401 1.36549 1.0979199
5.4945102 1.3679 -0.296745
5.4980102 1.3575701 0.098850399
5.4879098 1.35304 0.296222
5.5057201 1.35641 0.49609101
5.5036101 1.3528301 -0.69587398
5.4999299 1.3509099 0.89699501
5.5068998 1.3516099 -0.49609101
5.5589499 1.3623199 1.32136
5.49648 1.33482 0.29643101
5.5061302 1.33411 0.69563001
5.5160098 1.33548 -0.69684899
5.51158 1.33237 -0.49609101
5.51581 1.33136 -0.297373
5.50528 1.3278 -0.098850399
5.5153699 1.32005 0.098990098
5.5191598 1.3178999 0.49643901
5.5167799 1.3153 0.69636101
5.5015402 1.31065 0.89574403
5.50845 1.31128 -0.49539301
5.5262499 1.31348 -0.29768699
5.5138698 1.30038 0.098885298
5.52178 1.29817 0.49626499
5.5249801 1.29791 0.69684899
5.52531 1.2959501 0.89887297
5.5265698 1.29523 -0.496613
5.5202999 1.2937599 1.10211
5.5325298 1.2956001 -0.29779199
5.5280399 1.29252 -0.099094801
5.5276699 1.28125 0.297373
5.52174 1.27683 0.69587398
5.5228701 1.27404 1.10173
5.54036 1.26586 0.099199504
5.5518599 1.26543 0.498182
5.5338998 1.2593 0.69684899
5.5406799 1.2578 1.1044
5.5472798 1.25828 -0.29810601
5.5562401 1.24604 0.498182
5.54601 1.2417099 0.697824
5.5555301 1.2397799 -0.29831499
5.5619502 1.22491 0.69928598
5.5594702 1.22233 -0.49800801
5.57934 1.22466 -0.299362
5.5631299 1.2190599 -0.099408902
5.5623102 1.20465 0.69879901
5.56039 1.20322 0.90106302
5.57692 1.20272 -0.099583402
5.5704598 1.19014 0.29852399
5.5878401 1.18977 -0.70147997
5.57094 1.18414 1.10707
5.57973 1.18499 -0.29894301
5.5963001 1.17423 0.500274
5.58009 1.16879 0.70001799
5.5939002 1.17067 -0.70172399
5.5897198 1.16979 0.904504
5.5928001 1.16636 -0.099722996
5.5862598 1.15381 0.29894301
5.58216 1.14788 0.90262699
5.6153598 1.1353101 -0.70343
5.6016202 1.13152 0.90513003
5.6040101 1.13099 1.11127
5.6170902 1.1325999 -0.300304
5.6160998 1.11711 0.50097102
5.5996199 1.11282 0.700993
5.60748 1.11234 0.90544301
5.6188302 1.11358 -0.50114602
5.61728 1.11123 -0.30009401
5.6145201 1.10967 -0.099897601
5.6285501 1.0951 -0.50166798
5.6158099 1.0915999 1.11203
5.62113 1.09162 -0.30009401
5.6379299 1.08365 0.100212
5.61378 1.07698 0.29957101
5.6349201 1.07696 -0.70440501
5.6377401 1.06323 0.100142
5.6290998 1.06058 0.300199
5.6304698 1.05575 0.90732002
5.6438999 1.05725 -0.50236601
5.6384301 1.05419 -0.30061799
5.6336999 1.0522799 -0.100037
5.6451702 1.0452501 0.100212
5.6406202 1.04237 0.30061799
5.6517 1.04136 0.70562398
5.6373301 1.0326101 -0.100037
5.6619101 1.02588 0.30156001
5.6620102 1.0248801 0.50341201
5.67697 1.02452 -0.708305
5.6571398 1.01992 0.91044903
5.6645198 1.01717 -0.100456
5.6703901 1.0018899 0.91201299
5.6781998 1.0022399 -0.504457
5.6763301 0.98251402 -0.70732999
5.6799998 0.98110998 1.12043
5.6821198 0.98045099 -0.30218801
5.6756001 0.97728902 -0.100526
5.6830401 0.96937603 0.100631
5.6784201 0.96655202 0.30187401
5.68543 0.96468198 0.70806098
5.6715698 0.96029401 0.91107398
5.6889901 0.96324301 -0.50480598
5.6789699 0.95747 -0.100526
5.7001901 0.95184201 0.100875
5.6846399 0.94210398 0.91263902
5.7001801 0.94467998 -0.505503
5.7002702 0.94367403 1.1231
5.6960902 0.93991798 -0.10077
5.7067299 0.92940003 0.50585198
5.6998701 0.92624098 0.70903599
5.6937399 0.923208 0.91357702
5.7113099 0.92605698 -0.50620103
5.7098198 0.92376697 -0.30313
5.71908 0.923217 -0.101119
5.7178202 0.91175097 0.303444
5.7030602 0.90633702 0.70903599
5.72087 0.90814501 -0.71122998
5.7223802 0.90736198 -0.50689799
5.7105999 0.90447003 1.12387
5.7288299 0.89198899 0.50724602
5.724 0.88816899 -0.71122998
5.72542 0.887366 0.91764498
5.7181001 0.884188 -0.30323499
5.72539 0.883268 -0.101119
5.7308402 0.86977899 0.71171701
5.7367301 0.870673 -0.712448
5.7361898 0.86547202 -0.101259
5.7445302 0.85647601 0.30438599
5.7387099 0.85356301 0.507595
5.7412701 0.84984499 -0.50776899
5.73838 0.83713901 0.101224
5.75737 0.83785802 0.30490899
5.7502398 0.83374602 0.71342301
5.7602 0.83416498 -0.71464199
5.7458401 0.83106101 0.91952199
5.7558899 0.83251399 -0.50881499
5.7641101 0.81727499 0.50933802
5.7511501 0.81339198 0.71317899
5.7446799 0.80940902 1.1276799
5.7533398 0.80960298 -0.30449101
5.7698302 0.80063099 0.101678
5.7571402 0.79682201 0.30459499
5.7827201 0.79933298 0.51073301
5.75914 0.79095298 1.12997
5.7719598 0.79168802 -0.30532801
5.7697902 0.778054 0.30511901
5.77636 0.77586102 0.715617
5.7764902 0.77485597 -0.715617
5.7793798 0.77318603 1.13341
5.7806301 0.77232999 -0.30564201
5.7859702 0.77098501 -0.101887
5.7851901 0.76163501 0.101852
5.79211 0.75946099 0.51108098
5.78684 0.75363398 -0.51055801
5.79177 0.75427699 1.1353101
5.79914 0.754206 -0.30647901
5.78863 0.75078499 -0.101887
5.7968302 0.73847997 0.51125598
5.80933 0.73801202 -0.71902901
5.8006201 0.73587698 0.92609203
5.8013 0.73493099 -0.51160401
5.7905998 0.73255199 1.13455
5.79988 0.73269701 -0.306375
5.7964501 0.72095799 0.101957
5.8094602 0.72051698 0.306793
5.8196502 0.71662802 -0.512999
5.8067698 0.71401 1.13722
5.8256102 0.71323103 -0.102446
5.8235998 0.70060998 0.51317298
5.81359 0.695288 0.92734402
5.82409 0.69654399 -0.51317298
5.8189702 0.69489902 1.13913
5.81675 0.69360799 -0.30700299
5.82409 0.69241798 -0.102376
5.8102598 0.68049198 0.306584
5.8326302 0.67795402 -0.72097898
5.8197899 0.67646003 0.92796898
5.8324199 0.676898 -0.51369601
5.8252602 0.67503899 1.13989
5.8231101 0.67375702 -0.307212
5.8263602 0.67310202 -0.102376
5.8284702 0.66201103 0.307421
5.8362699 0.660833 0.51387
5.8427401 0.6595 -0.72195399
5.8260398 0.656582 0.92859501
5.8277001 0.64338601 0.102341
5.8406801 0.64275199 0.30794501
5.8369999 0.63925499 0.72097898
5.8488898 0.63745898 -0.51474202
5.8316698 0.63558197 1.14027
5.8438301 0.62452602 0.102585
5.8428798 0.62236202 0.30794501
5.8411698 0.61908698 0.721223
5.8629999 0.62036502 -0.72390401
5.85602 0.61859298 0.93266201
5.8629699 0.61829299 -0.51578802
5.8600001 0.60453999 0.10283
5.8431401 0.60073698 0.30783999
5.8512998 0.59847999 0.72219801
5.8602099 0.59732503 0.93297499
5.86906 0.59822601 -0.51613599
5.86374 0.59561902 -0.308887
5.8671198 0.59389102 -0.102934
5.8700399 0.58487302 0.102969
5.8632302 0.57902801 0.72341698
5.8751898 0.57917398 -0.72487903
5.8750701 0.57812703 -0.51648498
5.8771801 0.577299 1.14791
5.8780098 0.56495398 0.103074
5.8790498 0.559874 0.72512299
5.8929801 0.56016302 -0.72682899
5.8791599 0.55677903 1.14791
5.8759699 0.54406297 0.103004
5.8908701 0.54337198 0.310038
5.8829498 0.53953397 0.725366
5.8818798 0.53736401 0.93547797
5.8868999 0.53782201 -0.51718199
5.8791199 0.53607899 1.14753
5.8875599 0.53580999 -0.309829
5.8967099 0.523157 0.31024799
5.8963199 0.52208197 0.51787901
5.87886 0.518471 0.724635
5.9086099 0.52005303 -0.72829098
5.9067202 0.51469499 -0.103493
5.8905401 0.50189102 0.309829
5.9004202 0.49961999 0.72707301
5.90309 0.4957 -0.31045699
5.9124599 0.494405 -0.103563
5.9256401 0.48301199 0.520145
5.9080601 0.47950399 0.72780401
5.9200101 0.47943401 -0.72926599
5.9068799 0.47733 0.93860698
5.9137602 0.47685 1.15325
5.9754801 0.47762799 1.60623
5.91887 0.46478799 0.103632
5.9177999 0.462623 0.31108499
5.9233098 0.462017 0.51979703
5.9144101 0.457169 0.93954599
5.9176798 0.457421 -0.519274
5.92518 0.45695701 1.15516
5.93399 0.45555699 1.374
5.9077601 0.45146599 1.5876
5.9164701 0.44382399 0.103563
5.9310598 0.43971401 0.730241
5.9338598 0.435756 -0.311818
5.9530401 0.43612 1.37805
5.9431701 0.435397 -0.104016
5.9298801 0.42506099 0.103772
5.9367499 0.42346999 0.31192201
5.9482598 0.42220199 0.52171397
5.9305 0.41990399 0.72999698
5.9523602 0.42040801 -0.73267901
5.9372602 0.416217 -0.31192201
5.9505601 0.41610301 1.3771501
5.95263 0.415207 -0.104156
5.9393101 0.404901 0.103912
5.93819 0.40274301 0.31192201
5.9398599 0.39973199 0.73097199
5.9621701 0.39914301 0.94642901
5.9491601 0.39722899 1.15897
5.9442 0.39481401 1.37535
5.9540401 0.39442399 -0.104156
5.94873 0.393029 1.59743
5.9566498 0.38520101 0.104191
5.9435501 0.38227001 0.312132
5.9630699 0.37934601 -0.73365402
5.9556398 0.37783 0.94517702
5.95538 0.37363699 -0.104156
5.9609299 0.356233 0.94580299
5.9605598 0.35621101 -0.522412
5.9832001 0.356516 1.16508
5.9933801 0.33823201 -0.73706597
5.9759402 0.33620101 0.94799298
5.9737 0.33607501 -0.52345699
5.9947701 0.33410901 1.38615
5.96415 0.33031699 1.60054
5.9783802 0.32273099 0.104505
5.9766302 0.317406 0.73487198
5.9907498 0.316062 -0.52485198
5.97966 0.31442699 1.1639301
5.9755902 0.31316701 -0.31359699
5.9934502 0.30256701 0.104749
5.9876199 0.29703501 0.73609102
6.0055099 0.29687199 -0.73828501
5.9998498 0.295542 0.95143503
5.9977899 0.295441 -0.52537501
5.9983702 0.29441699 1.16737
6.0080099 0.29173699 -0.104994
6.0065498 0.27905899 0.52607203
6.0064602 0.27695599 0.73828501
5.9968901 0.27441499 0.950809
6.0170202 0.274286 1.1708
6.0076699 0.27175599 1.3884
6.0000901 0.26931399 1.60934
6.0074902 0.25809401 0.52607203
6.01929 0.25649399 0.73974699
6.0116301 0.25406501 0.952999
6.0016999 0.253645 -0.52554899
6.0184498 0.25224599 -0.31569099
6.0183201 0.25119099 1.39065
6.0218801 0.250287 -0.105203
6.0048499 0.24852601 1.61037
6.01228 0.240429 0.105029
6.0201502 0.23548201 0.73974699
6.04598 0.23543601 -0.74291599
6.0184698 0.23331 -0.52694398
6.0212898 0.231317 -0.315795
6.0226798 0.230315 -0.105203
6.02108 0.229204 1.6145101
6.0429902 0.217362 0.52903497
6.0369101 0.21397901 0.95675302
6.0331898 0.212796 -0.52816403
6.0332599 0.212798 1.17348
6.0240202 0.211417 -0.3159
6.0295701 0.208451 1.61658
6.0397601 0.200358 0.105482
6.0324702 0.198011 0.31631899
6.05762 0.19777501 0.53025502
6.0439601 0.189941 1.39605
6.05441 0.179693 0.105727
6.05827 0.176633 0.53025502
6.04848 0.16895001 1.39695
6.0567398 0.16812301 -0.105762
6.0482602 0.166831 1.62124
6.0630002 0.158766 0.105866
6.0588498 0.15548301 0.53025502
6.0843701 0.15295 -0.74730301
6.0526199 0.152152 0.95894301
6.0549798 0.151154 -0.52990699
6.07441 0.15057801 1.18111
6.0798101 0.14965101 -0.318726
6.0672598 0.148279 -0.105936
6.0565 0.146962 1.62331
6.06144 0.130144 -0.53043002
6.0729098 0.13039 1.18073
6.0762801 0.129402 -0.318517
6.0787101 0.12839501 1.40369
6.0777402 0.12730999 -0.106111
6.0647101 0.12597901 1.62538
6.06739 0.112263 0.74510902
6.09303 0.11061 0.96520102
6.08815 0.10627 -0.106285
6.0889101 0.0945912 0.31914499
6.1039801 0.092691302 0.53408998
6.1094398 0.090641297 -0.75022799
6.1031299 0.087351702 1.18645
6.0910301 0.086115196 -0.319249
6.11061 0.074659199 0.106669
6.1012001 0.0724172 0.31977299
6.1037698 0.069248602 0.749497
6.09727 0.063853703 1.40774
6.10075 0.0628253 -0.106495
6.1062698 0.061816402 1.63625
6.1188302 0.053396899 0.106809
6.1173902 0.051251799 0.32060999
6.12041 0.050206002 0.53548503
6.1079402 0.047974501 0.74998403
6.10849 0.0458466 -0.53443903
6.1291199 0.044931602 1.1914099
6.12743 0.043846902 -0.32113299
6.11093 0.0415987 -0.106669
6.1064501 0.040499501 1.63625
6.1229801 0.032063 0.106879
6.1279202 0.0267385 0.75242102
6.1213799 0.023505 1.18988
6.1315398 0.0224768 -0.321343
6.1287498 0.021393999 1.41494
6.1310601 0.0107019 0.107018
6.14253 0.0075059198 0.53740197
6.1279802 0.0053492002 0.75242102
6.1355801 0.00107265 -0.32155201
6.13907 -0.00107147 -0.107158
6.12783 -0.00213902 1.64195
6.1524801 -0.0139596 0.53827399
6.1359 -0.0160638 0.75339597
6.1584501 -0.0182725 -0.53879702
6.1547699 -0.0193359 1.19637
6.1326499 -0.021407099 1.41584
6.1530199 -0.022552099 -0.107402
6.1451702 -0.023595899 1.64661
6.1551499 -0.039748799 0.97490001
6.15202 -0.0429499 1.4203399
6.1668301 -0.053817101 0.107646
6.16329 -0.055937801 0.32301801
6.17415 -0.057114001 0.54019099
6.17137 -0.059242699 0.75778401
6.18922 -0.060494401 -0.75997698
6.1609001 -0.061292902 0.97583801
6.1641502 -0.0613253 -0.53931999
6.1819701 -0.062581703 1.20172
6.16471 -0.0656351 -0.107612
6.1585999 -0.075245298 0.107507
6.1790299 -0.077652097 0.32385501
6.1869898 -0.082072102 -0.75973397
6.18435 -0.083116703 0.97959298
6.1838198 -0.083109602 -0.54106301
6.1758299 -0.084080197 1.20057
6.18293 -0.085256197 -0.32406399
6.1847 -0.086360298 1.42799
6.19244 -0.087549403 -0.1081
6.1658401 -0.088249698 1.6523
6.1823001 -0.097119302 0.107926
6.1927199 -0.0983641 0.324588
6.1975098 -0.100604 0.542283
6.2025399 -0.103934 -0.76168299
6.1865802 -0.106907 -0.324274
6.18435 -0.119825 0.32416901
6.2209301 -0.127051 -0.544375
6.20259 -0.12667701 1.20591
6.2156901 -0.1302 -0.108519
6.1979299 -0.13090999 1.6611
6.21348 -0.139919 0.108484
6.1958799 -0.14168601 0.324797
6.2096601 -0.145254 0.762658
6.2284198 -0.148956 -0.54507202
6.2088099 -0.150656 1.43384
6.2192001 -0.151994 -0.108589
6.2032299 -0.152687 1.66265
6.2309399 -0.162075 0.108798
6.224 -0.166242 0.54472297
6.22895 -0.167463 0.76509601
6.2199001 -0.170478 -0.544375
6.2270498 -0.17285 -0.32647201
6.2335401 -0.174118 1.43969
6.2323098 -0.184971 0.108833
6.2373199 -0.188388 0.54594398
6.2283001 -0.190292 0.76509601
6.25208 -0.19211 -0.76802099
6.2411399 -0.193955 -0.54629201
6.2224798 -0.19337501 1.2101099
6.2154899 -0.197502 1.66628
6.2505298 -0.21172 0.54716402
6.2483702 -0.214922 0.99023002
6.2354598 -0.216657 1.21278
6.2516098 -0.219403 1.44419
6.2571902 -0.21959899 -0.109287
6.2360001 -0.219946 1.67197
6.24685 -0.22906201 0.109112
6.2655501 -0.237413 -0.548558
6.2449999 -0.23990899 1.44284
6.26443 -0.240655 -0.109427
6.2523298 -0.25221199 0.32793701
6.2688498 -0.25507101 0.54890698
6.2617102 -0.25587499 0.76948297
6.2676201 -0.25721201 -0.77021402
6.2586098 -0.257936 0.99210799
6.2666798 -0.25936499 -0.548733
6.2731199 -0.25963101 1.22041
6.2719698 -0.26067999 -0.32898399
6.2715402 -0.26285499 -0.109566
6.2811098 -0.273141 0.109741
6.2713599 -0.27491 0.32898399
6.26754 -0.28022301 0.99367201
6.2989602 -0.283831 -0.33044899
6.2743702 -0.28382 1.45003
6.2604299 -0.28537899 1.67922
6.2841101 -0.295252 0.109811
6.2888098 -0.29987299 0.55082399
6.27563 -0.30034301 0.771433
6.2846098 -0.30407101 -0.55047601
6.3018599 -0.30711001 -0.330659
6.2927599 -0.307767 1.45453
6.29352 -0.30780399 -0.109985
6.2869802 -0.31848499 0.10988
6.3123202 -0.33191901 -0.110334
6.3137798 -0.34194201 0.110369
6.3039799 -0.34361801 0.33086801
6.2792101 -0.34666499 -0.77216399
6.3221302 -0.35014099 -0.55396199
6.31112 -0.35395101 -0.110334
6.2975402 -0.35429201 1.6900899
6.3067899 -0.36475199 0.33107701
6.3250999 -0.36802599 0.55431098
6.3123102 -0.37059799 1.00149
6.3347902 -0.373027 -0.55518198
6.3243999 -0.373523 1.23148
6.3059702 -0.37574801 1.69268
6.3294001 -0.38823199 0.332333
6.3277602 -0.39034799 0.55465901
6.3302698 -0.39161199 0.778745
6.2667999 -0.38878301 -0.77094603
6.32549 -0.39464101 -0.55448502
6.3348799 -0.39522699 1.23377
6.3448701 -0.39696199 -0.33317101
6.3229198 -0.39669701 1.46263
6.33251 -0.398408 -0.110753
6.30655 -0.397879 1.69319
6.3319898 -0.41058099 0.33254299
6.28125 -0.411695 -0.77289498
6.34197 -0.417898 -0.556054
6.3373799 -0.41759601 1.23453
6.3474302 -0.41937101 -0.33338001
6.3470502 -0.42157 -0.111032
6.3263202 -0.421303 1.69889
6.3403902 -0.431133 0.110927
6.3392601 -0.43661401 0.78020799
6.2817502 -0.43375501 -0.773139
6.3474998 -0.43940699 1.00775
6.3471398 -0.44383499 1.46893
6.34023 -0.444464 1.70303
