# .PCD v0.7 - Point Cloud Data file format
VERSION 0.7
FIELDS x y z
SIZE 4 4 4
TYPE F F F
COUNT 1 1 1
WIDTH 572
HEIGHT 1
VIEWPOINT 0 0 0 1 0 0 0
POINTS 572
DATA ascii
2.5027101 1.46833 -0.77749199
2.51649 1.42899 -0.77542198
2.5281999 1.42399 -0.77749199
2.5313201 1.40256 -0.77542198
2.53596 1.39415 -0.77542198
2.55089 1.36663 -0.77542198
2.5515299 1.35724 -0.774387
2.56674 1.35329 -0.77749199
2.5785 1.31381 -0.77542198
2.5929 1.27643 -0.774387
3.0232401 1.46084 -0.775181
2.62006 1.25588 -0.77852798
3.0318301 1.45196 -0.77608103
2.6244299 1.24673 -0.77852798
2.6147799 1.23098 -0.774387
2.6431201 1.18787 -0.77645701
2.6419599 1.17627 -0.77490401
2.6665399 1.1539201 -0.77852798
3.10355 1.31674 -0.77833098
3.09038 1.29781 -0.77383202
2.6859601 1.11806 -0.77956301
3.10007 1.2898 -0.775181
3.0973401 1.276 -0.77338201
2.67939 1.0934401 -0.77542198
3.1126101 1.2696 -0.77608103
2.6814001 1.08336 -0.77490401
3.11724 1.25818 -0.77608103
3.65411 1.47413 -0.76590699
3.1105399 1.2435 -0.77338201
2.6994901 1.06935 -0.77801001
3.6768401 1.45428 -0.76857901
2.7104001 1.06274 -0.78008097
2.6996801 1.04768 -0.77594
2.7069299 1.02881 -0.77594
2.7249701 1.02479 -0.78008097
3.7126901 1.39403 -0.770868
3.14344 1.16903 -0.77428198
3.6933701 1.37282 -0.76590699
2.71557 1.00021 -0.77542198
2.7190399 0.99072701 -0.77542198
3.15152 1.14706 -0.77428198
2.7297599 0.98384899 -0.77749199
3.1408401 1.13077 -0.77068198
3.1557801 1.12372 -0.77338201
3.15785 1.1120501 -0.77293199
3.73366 1.31336 -0.76934201
3.16558 1.10175 -0.77383202
3.7326601 1.29839 -0.768197
2.73791 0.94327402 -0.77594
3.18028 1.09506 -0.77653098
2.74102 0.93418902 -0.77594
3.7507 1.2761101 -0.770105
3.1728201 1.01868 -0.769333
3.7686601 1.20926 -0.76934201
2.76367 0.87774903 -0.77697498
3.18751 1.01114 -0.77203202
4.5950599 1.45499 -0.76340002
2.7630301 0.86694098 -0.77594
3.1835799 0.99767298 -0.77023202
3.2112401 0.99404597 -0.77608103
3.79425 1.17379 -0.77201301
2.75793 0.844239 -0.772834
3.2072401 0.980551 -0.77428198
3.7851801 1.15653 -0.76934201
4.6206102 1.39241 -0.76433903
2.76917 0.82710397 -0.774387
3.1895599 0.95145702 -0.76843297
4.6233001 1.37651 -0.76402599
3.79669 1.11815 -0.76934201
4.6335301 1.3628401 -0.764965
2.7728801 0.80769598 -0.77386898
3.21468 0.935166 -0.77293199
3.7836101 1.09996 -0.76590699
2.78496 0.80068099 -0.77645701
3.2272899 0.92662901 -0.775181
3.2155001 0.91110897 -0.77158201
3.8081901 1.07833 -0.76934201
4.6380401 1.31156 -0.76340002
3.8120301 1.05001 -0.76857901
4.66255 1.28253 -0.765903
2.79228 0.76021498 -0.77542198
3.2325399 0.878869 -0.77338201
2.7911799 0.749461 -0.774387
3.81358 1.02184 -0.767434
4.6635299 1.24872 -0.76465201
3.21961 0.85185999 -0.76888299
3.83972 1.01521 -0.77201301
4.6735902 1.23394 -0.76559001
4.6859198 1.20227 -0.76621598
2.8087399 0.71280903 -0.77645701
3.8273001 0.96916997 -0.767434
4.6862602 1.18494 -0.76559001
3.2500999 0.81154603 -0.77338201
3.8287599 0.95532799 -0.76705199
4.6827002 1.16666 -0.76433903
3.2434499 0.79786801 -0.77113199
4.68291 1.14937 -0.763713
3.2479701 0.78756797 -0.77158201
3.8561599 0.93432701 -0.77125001
3.2544899 0.77713001 -0.77248198
3.2723601 0.769333 -0.77608103
3.84921 0.90424299 -0.76857901
2.8154099 0.652578 -0.774387
3.85426 0.89124399 -0.76896
4.7002301 1.08513 -0.76402599
3.25105 0.74041098 -0.76978201
3.86309 0.87909102 -0.770105
3.8603799 0.86431301 -0.76896
4.70962 1.05273 -0.76433903
2.84095 0.62722403 -0.77956301
3.26565 0.71979302 -0.77203202
4.7306299 1.0401 -0.76715499
3.2757599 0.710042 -0.77383202
3.85865 0.83567899 -0.767434
4.7284398 1.02233 -0.76621598
2.8301499 0.60415 -0.77542198
4.7300501 1.0053999 -0.765903
3.8720801 0.81032997 -0.76896
2.8455501 0.58721298 -0.77852798
4.7445202 0.97477603 -0.76715499
2.84569 0.57689297 -0.77801001
3.26232 0.66017097 -0.76843297
3.8621099 0.78084099 -0.76590699
2.842 0.56582499 -0.77645701
3.86481 0.76735801 -0.76590699
2.84396 0.55590099 -0.77645701
3.28598 0.64111102 -0.77293199
4.7428398 0.92277402 -0.76527798
2.8496699 0.54669899 -0.77749199
3.2728801 0.62670398 -0.769333
3.88164 0.742571 -0.768197
2.84777 0.53603297 -0.77645701
3.26739 0.613837 -0.767533
3.8861401 0.72937799 -0.76857901
3.87322 0.712964 -0.765526
4.76196 0.87484097 -0.76684201
2.8401201 0.513578 -0.77335101
4.7515202 0.85493398 -0.76465201
2.85712 0.50635898 -0.77749199
4.7642002 0.840056 -0.76621598
2.85887 0.496382 -0.77749199
3.2852399 0.56982201 -0.76978201
4.7591801 0.82290798 -0.764965
3.8886001 0.65980202 -0.766671
4.7600698 0.80596101 -0.76465201
3.8792601 0.64429402 -0.76438099
4.7667499 0.789985 -0.76527798
3.3006499 0.536955 -0.77203202
2.8559 0.455396 -0.77490401
2.8670199 0.44691399 -0.77749199
4.7649999 0.73851401 -0.763713
4.76547 0.72241098 -0.76340002
2.87573 0.42824101 -0.77904499
3.8859301 0.57659602 -0.76361799
2.8771999 0.418201 -0.77904499
3.89763 0.55055201 -0.76514399
2.8724 0.397046 -0.77697498
3.30112 0.45513299 -0.769333
3.8878601 0.53533697 -0.76285398
4.7614002 0.65392399 -0.76121002
3.2911 0.442049 -0.76663297
4.7616901 0.63703698 -0.76089698
3.8935399 0.50775403 -0.76323599
3.2999799 0.41922599 -0.76798302
3.3264899 0.41139001 -0.77383202
2.8769701 0.346623 -0.77645701
3.89856 0.46763501 -0.76323599
2.87816 0.33658001 -0.77645701
3.3079901 0.38567299 -0.76888299
3.9021201 0.454254 -0.76361799
2.8831601 0.32696599 -0.77749199
3.32093 0.375438 -0.77158201
3.9017301 0.440409 -0.76323599
2.8727601 0.315635 -0.774387
3.9012899 0.42657399 -0.76285398
4.7719102 0.52007997 -0.76027203
2.8738501 0.30560401 -0.774387
3.3273499 0.35265499 -0.77248198
3.9086201 0.41357201 -0.76399899
4.7501202 0.50093502 -0.75651699
3.3169301 0.339847 -0.76978201
4.7636299 0.48555201 -0.758394
3.3103399 0.327499 -0.76798302
4.7790599 0.470276 -0.760584
3.3308101 0.31837401 -0.77248198
2.8854401 0.26716599 -0.77645701
3.3337801 0.30750701 -0.77293199
4.7624002 0.43676701 -0.757456
2.88447 0.25641799 -0.77594
4.7541299 0.41844001 -0.75589103
3.91642 0.33162501 -0.76399899
4.7615399 0.40151101 -0.75682998
2.88816 0.235928 -0.77645701
3.9312501 0.31906399 -0.766671
2.8870001 0.226199 -0.77594
3.33003 0.25974101 -0.77113199
3.9244599 0.305417 -0.76514399
3.3317201 0.237068 -0.77113199
2.89114 0.19608399 -0.77645701
3.9235201 0.26403999 -0.76438099
3.91658 0.249841 -0.76285398
3.3340499 0.20158499 -0.77113199
3.93311 0.237114 -0.76590699
4.7679 0.28577399 -0.75651699
2.8930299 0.16579799 -0.77645701
3.9182301 0.22249401 -0.76285398
3.93467 0.20965201 -0.76590699
3.3282001 0.16627 -0.769333
3.9393001 0.19611099 -0.766671
4.7666898 0.235633 -0.75589103
2.9003999 0.135766 -0.77801001
4.7655101 0.21890099 -0.75557899
3.9170401 0.167597 -0.76209098
4.7701898 0.202435 -0.75620401
2.8993399 0.115435 -0.77749199
4.7708702 0.185782 -0.75620401
2.90359 0.105456 -0.77852798
3.33798 0.120065 -0.77113199
4.7596402 0.168706 -0.754327
2.90394 0.095319502 -0.77852798
4.7779498 0.15349101 -0.75714302
3.3231399 0.096888497 -0.767533
3.9386001 0.114143 -0.76590699
2.90452 0.075550802 -0.77852798
3.3234601 0.085287102 -0.767533
3.9056101 0.099544302 -0.75941998
4.7828498 0.120233 -0.75776899
3.32373 0.073686197 -0.767533
3.93537 0.086558901 -0.76514399
2.89147 0.054509699 -0.77490401
4.7895198 0.086110704 -0.75870699
3.31638 0.0497832 -0.765733
4.7660799 0.069049299 -0.75495303
2.9014299 0.0349431 -0.77749199
2.90153 0.025320601 -0.77749199
3.32833 0.027884901 -0.76843297
2.8958399 0.00505477 -0.77594
2.9035699 -0.0050676898 -0.77801001
3.94417 -0.0089490497 -0.766671
4.7803998 -0.0125151 -0.75714302
3.3167 -0.0185242 -0.765733
3.9282999 -0.036338799 -0.76361799
2.8994801 -0.036437899 -0.77697498
3.32038 -0.042886499 -0.76663297
2.9032099 -0.046114001 -0.77801001
2.8953099 -0.055592801 -0.77594
3.30638 -0.064640298 -0.763484
4.7596998 -0.095546097 -0.75401402
2.9028101 -0.066381 -0.77801001
3.93525 -0.092051998 -0.76514399
4.7711701 -0.113272 -0.75589103
2.90836 -0.076665998 -0.77956301
3.30389 -0.088246398 -0.76303399
2.8984201 -0.086529396 -0.77697498
3.3152399 -0.100132 -0.765733
4.7643399 -0.146396 -0.75495303
3.3168199 -0.111769 -0.76618302
3.93014 -0.133123 -0.76438099
4.7618198 -0.162958 -0.75463998
2.8996699 -0.106833 -0.77749199
3.9335799 -0.146988 -0.76514399
2.9108901 -0.116913 -0.78059798
2.91044 -0.127581 -0.78059798
4.7539301 -0.212549 -0.75370097
3.3110199 -0.15846001 -0.76528299
4.7708802 -0.230831 -0.75651699
2.8882501 -0.146818 -0.77490401
3.3143699 -0.16963799 -0.76618302
2.9031799 -0.157231 -0.77904499
3.93437 -0.21514399 -0.76590699
4.75741 -0.26181599 -0.75463998
3.93944 -0.22990599 -0.76705199
2.9039099 -0.17812 -0.77956301
2.89363 -0.18763 -0.77697498
3.29421 -0.214182 -0.76213402
4.7493501 -0.32794201 -0.75401402
4.75212 -0.34480399 -0.75463998
6.0563202 -0.44156 -0.745597
3.29567 -0.24896 -0.76303399
6.04287 -0.46179101 -0.74413401
2.9023299 -0.22841799 -0.78008097
3.29478 -0.26046199 -0.76303399
3.9122901 -0.30996501 -0.76285398
6.0412202 -0.48288101 -0.74413401
2.8841801 -0.237123 -0.77542198
3.90727 -0.32329601 -0.76209098
4.7423401 -0.39405799 -0.75370097
2.8871901 -0.247519 -0.77645701
3.3064799 -0.284628 -0.76618302
3.90611 -0.336932 -0.76209098
4.7330599 -0.40992799 -0.75244999
3.91274 -0.35126799 -0.76361799
3.2850101 -0.305897 -0.761684
3.9232199 -0.366018 -0.76590699
6.0279598 -0.56662601 -0.74340302
2.8921299 -0.27847999 -0.77852798
3.9082301 -0.37838599 -0.76323599
4.74227 -0.46080601 -0.75463998
6.0318699 -0.58824199 -0.74413401
2.88922 -0.28838199 -0.77801001
4.7308102 -0.476367 -0.75307602
6.0376801 -0.61009198 -0.74510902
2.8843501 -0.29806799 -0.77697498
3.90745 -0.405864 -0.76361799
2.8813701 -0.30792999 -0.77645701
3.2785399 -0.35095301 -0.76123399
3.91187 -0.42013001 -0.764763
3.2811699 -0.36282399 -0.76213402
3.9064701 -0.43334901 -0.76399899
4.7158399 -0.52396601 -0.75151098
6.02319 -0.67135102 -0.74413401
2.89643 -0.330006 -0.78111601
3.29143 -0.37617499 -0.76483399
4.7276201 -0.54282397 -0.75370097
4.7354102 -0.56131101 -0.75526601
6.01823 -0.71443498 -0.74413401
2.88254 -0.34882599 -0.77801001
3.2964599 -0.40008399 -0.76663297
2.8794501 -0.358145 -0.77749199
3.27578 -0.40860099 -0.76213402
6.0132298 -0.75538301 -0.74413401
2.8896201 -0.37016901 -0.78059798
3.2858601 -0.42209399 -0.76483399
5.99861 -0.77588898 -0.74267203
2.8805799 -0.379747 -0.77852798
4.7153602 -0.62581301 -0.753389
5.98982 -0.79708397 -0.74194098
2.86392 -0.38772699 -0.774387
2.8741 -0.39881501 -0.77749199
3.28512 -0.457017 -0.765733
3.8870201 -0.54144299 -0.76285398
4.7168598 -0.658714 -0.754327
2.88027 -0.410436 -0.77956301
3.27772 -0.467655 -0.76438397
3.8947201 -0.55707598 -0.764763
4.7007298 -0.67403501 -0.75213701
4.6924801 -0.689578 -0.75119799
5.9723701 -0.87872702 -0.74120897
4.6901698 -0.70513499 -0.75119799
5.9654899 -0.897937 -0.740722
2.86833 -0.43840399 -0.77749199
4.7014699 -0.72278601 -0.753389
5.9662499 -0.91935903 -0.74120897
3.29213 -0.516123 -0.769333
3.88096 -0.60913002 -0.76361799
4.6911201 -0.73796499 -0.75213701
5.9629998 -0.94018 -0.74120897
3.27877 -0.52575999 -0.76663297
3.8982 -0.62578499 -0.767434
2.87113 -0.47016501 -0.77956301
3.8723199 -0.65008801 -0.76323599
2.8601601 -0.48889601 -0.77749199
3.2845099 -0.56261098 -0.769333
3.8719599 -0.66393298 -0.76361799
3.28444 -0.57440901 -0.76978201
4.6696 -0.819175 -0.75088602
3.27666 -0.58484298 -0.76843297
3.8652999 -0.69060302 -0.76323599
3.2785399 -0.596403 -0.769333
3.8707099 -0.70482397 -0.764763
4.67062 -0.86902201 -0.75244999
3.28196 -0.62072599 -0.77113199
4.6733799 -0.88642502 -0.753389
3.29316 -0.63476002 -0.77428198
3.8592701 -0.74457502 -0.76399899
4.6663799 -0.90198302 -0.75276297
3.27372 -0.64287102 -0.77023202
3.8624201 -0.75917703 -0.76514399
4.6476998 -0.91521198 -0.75026
2.85496 -0.56996 -0.78008097
2.8529601 -0.57992202 -0.78008097
4.6663599 -0.95277399 -0.754327
3.2725301 -0.67830402 -0.77158201
3.8522 -0.79985601 -0.764763
3.27193 -0.69069701 -0.77203202
2.83529 -0.60783303 -0.77697498
3.26772 -0.70113403 -0.77158201
3.835 -0.82425398 -0.76247299
4.6271601 -0.99535602 -0.74963403
3.2462101 -0.70838201 -0.76708299
3.84951 -0.84073699 -0.76590699
2.8347499 -0.62844801 -0.77801001
3.82341 -0.84973001 -0.76132798
2.825 -0.63664103 -0.77594
3.82233 -0.86350298 -0.76170999
4.6317101 -1.04805 -0.75213701
2.82652 -0.64736003 -0.77697498
3.2690101 -0.74930298 -0.77428198
2.8318901 -0.65847999 -0.77904499
4.6187 -1.0782 -0.75119799
3.23715 -0.76582497 -0.76798302
3.81706 -0.90372097 -0.76247299
3.24582 -0.77985197 -0.77068198
2.8248401 -0.68809903 -0.77904499
3.2449701 -0.79163897 -0.77113199
4.6205902 -1.1298 -0.753389
2.8149199 -0.6961 -0.77697498
3.24597 -0.80389798 -0.77203202
4.6051102 -1.14306 -0.75151098
3.81359 -0.95932299 -0.76438099
3.23665 -0.82501101 -0.77113199
4.6125398 -1.17829 -0.75401402
2.81882 -0.727947 -0.78008097
3.2337501 -0.83630401 -0.77113199
3.80351 -0.998541 -0.76438099
2.80247 -0.74463201 -0.77697498
2.81478 -0.75843102 -0.78111601
3.2086 -0.877774 -0.76798302
4.5963602 -1.27728 -0.75557899
3.7760501 -1.0621099 -0.76247299
4.5804701 -1.2901 -0.75370097
2.7927599 -0.79448599 -0.77801001
3.7779901 -1.0769 -0.76361799
4.5683398 -1.30391 -0.75244999
3.1904099 -0.92086601 -0.76663297
2.7871499 -0.813963 -0.77801001
3.1946599 -0.93418503 -0.76843297
4.5724001 -1.33966 -0.75463998
4.5676899 -1.35561 -0.75463998
3.1805999 -0.954225 -0.76663297
3.7607 -1.12898 -0.76323599
4.5629301 -1.37155 -0.75463998
2.7766199 -0.84254402 -0.77749199
3.1958899 -0.97098601 -0.77113199
3.7623701 -1.14381 -0.76438099
2.78105 -0.85450101 -0.77956301
3.75648 -1.15636 -0.76399899
4.5532498 -1.40337 -0.75463998
3.17787 -0.989797 -0.76843297
3.76929 -1.1747299 -0.767434
2.77686 -0.87447602 -0.78008097
3.7464399 -1.18197 -0.76361799
4.54145 -1.43453 -0.754327
2.7701099 -0.88299 -0.77904499
3.1747701 -1.0125901 -0.769333
4.5385499 -1.4501801 -0.75463998
3.7532599 -1.21227 -0.766671
4.5127902 -1.45933 -0.75119799
2.76404 -0.90182501 -0.77904499
3.7434001 -1.2235301 -0.765526
4.5151801 -1.47753 -0.75244999
2.7704999 -0.92538399 -0.78266901
2.7417901 -0.92591202 -0.77542198
3.71945 -1.25824 -0.76323599
2.7456901 -0.93845499 -0.77749199
3.14937 -1.07704 -0.76843297
3.7073801 -1.26932 -0.76170999
3.15645 -1.0924 -0.77113199
3.7140601 -1.28611 -0.76399899
4.5110998 -1.56387 -0.75620401
2.7481899 -0.96078801 -0.78008097
3.1379099 -1.09826 -0.767533
4.5093799 -1.59863 -0.75776899
2.7286799 -0.975398 -0.77645701
4.4851799 -1.60769 -0.75463998
3.7012801 -1.3398401 -0.76514399
2.73632 -0.99972802 -0.78059798
3.1314199 -1.1453201 -0.76978201
3.6965799 -1.35276 -0.76514399
4.47755 -1.6403199 -0.75526601
3.1127801 -1.15083 -0.76618302
4.47365 -1.65663 -0.75557899
3.67993 -1.37514 -0.76361799
3.6790199 -1.38872 -0.76438099
4.4551802 -1.68347 -0.754327
2.70802 -1.0313801 -0.77645701
3.11918 -1.18923 -0.77068198
3.6814899 -1.40435 -0.76590699
3.1113701 -1.19871 -0.76978201
3.6729 -1.4157799 -0.76514399
4.4488401 -1.71667 -0.75526601
4.4535599 -1.73727 -0.75714302
2.6967599 -1.07099 -0.77749199
3.63938 -1.4475501 -0.76132798
3.0961399 -1.2427599 -0.77023202
2.6965699 -1.0922199 -0.77956301
3.6440001 -1.4781899 -0.76438099
3.0811501 -1.27437 -0.76978201
3.6227 -1.49909 -0.76209098
2.6814201 -1.11891 -0.77852798
3.61745 -1.51173 -0.76209098
2.67749 -1.12827 -0.77852798
3.6266201 -1.53045 -0.76514399
2.6770899 -1.13912 -0.77956301
2.6768501 -1.14951 -0.78059798
3.06497 -1.34224 -0.77248198
3.59798 -1.57716 -0.76361799
2.6587801 -1.18599 -0.78008097
3.04461 -1.35937 -0.76978201
3.57918 -1.62887 -0.76438099
3.57019 -1.6390899 -0.76361799
2.64042 -1.22172 -0.77956301
3.5680101 -1.65319 -0.76438099
2.6466401 -1.23584 -0.78266901
2.6396899 -1.25511 -0.78318602
3.0232799 -1.4517601 -0.77428198
3.54458 -1.70285 -0.76438099
2.6187 -1.26762 -0.77956301
3.00283 -1.46717 -0.77158201
2.61694 -1.28883 -0.78163397
3.0064299 -1.48195 -0.77383202
3.0082099 -1.49591 -0.77563101
2.6044199 -1.3053401 -0.78059798
3.00297 -1.5064 -0.77563101
2.9819701 -1.52201 -0.77293199
3.5022299 -1.78833 -0.76438099
2.59304 -1.34468 -0.78266901
2.9767301 -1.54497 -0.77428198
3.4693999 -1.81762 -0.76132798
2.97422 -1.57078 -0.77653098
3.4734499 -1.83522 -0.76361799
2.57516 -1.3703901 -0.78163397
2.5771699 -1.3830301 -0.78370398
2.9614601 -1.59058 -0.77608103
2.5689299 -1.39018 -0.78266901
2.9475999 -1.59576 -0.77383202
2.9437201 -1.60697 -0.77428198
2.5594101 -1.40763 -0.78266901
3.42747 -1.88738 -0.76056498
2.55304 -1.41517 -0.78215098
3.42977 -1.9035 -0.76247299
2.5464001 -1.42313 -0.78163397
2.9205 -1.63288 -0.77248198
3.4105999 -1.9256999 -0.76132798
2.52918 -1.43794 -0.77956301
3.4038501 -1.93759 -0.76132798
2.5308499 -1.4506 -0.78163397
2.91927 -1.67459 -0.776981
3.40729 -1.95532 -0.76361799
3.4075799 -1.97054 -0.76514399
2.8884301 -1.6966701 -0.77338201
3.3764701 -1.98493 -0.76132798
2.51035 -1.4858 -0.78163397
2.50349 -1.49356 -0.78111601
3.3726399 -2.0144899 -0.76361799
2.5065401 -1.50727 -0.78370398
2.86854 -1.72632 -0.77293199
3.3655701 -2.0414701 -0.76514399
2.8557401 -1.7733999 -0.77608103
3.35198 -2.08237 -0.76705199
2.8399301 -1.77666 -0.77338201
2.82743 -1.7819099 -0.77158201
3.33477 -2.1024599 -0.766289
2.8310599 -1.79803 -0.77428198
2.83462 -1.8142101 -0.776981
2.82499 -1.82198 -0.77608103
3.31093 -2.1362 -0.76590699
2.80391 -1.82227 -0.77203202
2.8007901 -1.83418 -0.77293199
3.30212 -2.16414 -0.767434
2.80056 -1.84873 -0.77473098
3.2880001 -2.17133 -0.76590699
2.7683599 -1.88279 -0.77293199
3.25634 -2.2497499 -0.76934201
2.75775 -1.91883 -0.77563101
3.2309999 -2.2825999 -0.76896
2.7346699 -1.94487 -0.77473098
3.21861 -2.2898901 -0.76781499
2.72821 -1.95392 -0.77473098
2.70504 -1.96605 -0.77203202
2.69682 -2.0035601 -0.77563101
2.69293 -2.0153 -0.77653098
2.6424601 -2.0652599 -0.77428198
2.62059 -2.10851 -0.77653098
2.60904 -2.1135099 -0.775181
2.5955999 -2.1176801 -0.77338201
2.5968599 -2.1345999 -0.77608103
2.5818901 -2.1526799 -0.77608103
2.5683899 -2.1566701 -0.77428198
2.5519199 -2.1580701 -0.77158201
2.55476 -2.1758101 -0.77473098
2.5088799 -2.2432001 -0.776981
