# .PCD v0.7 - Point Cloud Data file format
VERSION 0.7
FIELDS x y z
SIZE 4 4 4
TYPE F F F
COUNT 1 1 1
WIDTH 804
HEIGHT 1
VIEWPOINT 0 0 0 1 0 0 0
POINTS 804
DATA ascii
6.36374 -0.88643903 0.33673
6.3579402 -0.88676101 0.56163198
6.3715 -0.893188 1.0190099
6.3650498 -0.893417 -0.56232899
6.3642402 -0.89556903 1.48378
6.3489499 -0.89567697 1.71804
6.3763399 -0.91316497 0.56354898
6.3781199 -0.91682899 1.0205801
6.3716998 -0.91817498 1.25133
6.3782802 -0.92139602 1.48783
6.39464 -0.92376 -0.112777
6.3706398 -0.92142802 1.7247699
6.3910398 -0.93462998 0.112743
6.38902 -0.93547302 0.338404
6.3867602 -0.93969798 0.792638
6.3941398 -0.94306397 -0.56546599
6.4054899 -0.94702202 -0.33934599
6.38097 -0.94339699 1.48918
6.3831 -0.96307403 -0.56476903
6.3653002 -0.96152401 1.25133
6.3786101 -0.964674 -0.33809
6.3545899 -0.96217602 -0.112184
6.34516 -0.97094703 0.112044
6.3311701 -0.97106701 0.33568299
6.31745 -0.97573501 1.24255
6.3319602 -0.97910702 -0.33578801
6.3057399 -0.97730798 -0.111381
6.2959099 -0.97690803 1.70717
6.2865601 -0.98782098 0.55675101
6.2828002 -0.98947799 0.78093898
6.2809701 -0.99143702 1.00713
6.2799602 -0.99127799 -0.55622798
6.2746801 -0.99381202 1.46668
6.2785902 -0.99555498 -0.110962
6.2572799 -1.00225 0.110613
6.2611299 -1.00511 0.332333
6.2401099 -1.00509 0.77606398
6.2443199 -1.008 1.00181
6.2403898 -1.01072 1.45948
6.2435002 -1.0123399 -0.110404
6.2241402 -1.01924 0.11009
6.2161999 -1.02017 0.33013499
6.2013001 -1.02106 0.77167702
6.2037301 -1.02368 0.99586201
6.2216001 -1.02775 -0.551696
6.2088599 -1.0278701 -0.32982099
6.1881399 -1.02666 1.68077
6.15903 -1.03951 0.98929203
6.1655798 -1.04172 1.21545
6.1697798 -1.04354 -0.32793701
6.1615 -1.05431 0.109112
6.15165 -1.05484 0.32710001
6.1273198 -1.05397 0.76339
6.1346102 -1.05963 -0.326262
6.1275101 -1.05951 1.43564
6.1259599 -1.06034 -0.108519
6.1140099 -1.05937 1.66265
6.1183801 -1.06893 0.108414
6.1203899 -1.07148 0.325634
6.1001401 -1.0712301 0.76046503
6.0971498 -1.0729001 0.98053098
6.0947199 -1.0724699 -0.54141098
6.10531 -1.07653 -0.324902
6.1026602 -1.07716 1.4306901
6.0985899 -1.07754 -0.1081
6.0811501 -1.0843101 0.107821
6.09302 -1.0886199 0.32437801
6.0819001 -1.0877301 0.54053998
6.0651002 -1.08691 0.75656497
6.0661502 -1.08929 0.97615099
6.0713301 -1.09022 -0.53966802
6.0681 -1.09182 -0.32312199
6.0605001 -1.09155 1.42169
6.0499701 -1.09947 0.107332
6.0500798 -1.10167 0.322285
6.02632 -1.1006 0.75217801
6.03336 -1.1040601 0.97145802
6.0478501 -1.1110801 -0.107332
6.0286798 -1.10864 1.64247
6.0264301 -1.11693 0.106983
6.0049601 -1.1151201 0.32008699
5.9990201 -1.11727 0.74925297
5.94418 -1.10813 -0.742428
5.9945102 -1.11859 0.96582699
6.0246 -1.12421 -0.53618199
5.9980602 -1.12034 1.18607
6.0134101 -1.12429 -0.32060999
5.99439 -1.1239901 1.6341799
5.9969602 -1.13314 0.106529
5.9774799 -1.13162 0.318831
5.9775801 -1.13704 -0.53234702
5.9632602 -1.13539 1.17996
5.9551501 -1.136 1.39965
5.94489 -1.1362 1.62176
5.94976 -1.14574 0.105762
5.9460402 -1.14718 0.31736499
5.9430799 -1.14768 0.529558
5.9482002 -1.15083 0.743891
5.9264398 -1.14876 0.956128
5.9500999 -1.15335 -0.53025502
5.9264898 -1.14985 1.17348
5.95051 -1.15558 -0.31767899
5.9124398 -1.1514 1.614
5.9224 -1.16408 0.31631899
5.90694 -1.16532 -0.73926002
5.9068899 -1.16638 0.95362502
5.89746 -1.16666 -0.31506199
5.9022899 -1.16975 -0.105029
5.8875399 -1.1679 1.6083
5.8860798 -1.17936 0.52520001
5.8621702 -1.1767 0.73414099
5.8640499 -1.1792099 0.94736701
5.8754902 -1.18151 -0.52432901
5.8548102 -1.1784101 1.16088
5.8776898 -1.18408 -0.31422499
5.8707199 -1.18481 -0.10454
5.86449 -1.18462 1.60313
5.8456302 -1.19143 0.312655
5.8526502 -1.19393 0.52258599
5.83079 -1.19159 0.73072898
5.8231301 -1.19214 0.941423
5.8516002 -1.19903 -0.52258599
5.8179698 -1.20696 0.31139901
5.8170199 -1.2088799 0.51979703
5.8052201 -1.20749 0.72804803
5.82056 -1.21174 -0.72999698
5.7957301 -1.20762 0.93766803
5.8280101 -1.21753 -0.31202701
5.81142 -1.21513 -0.103632
5.7936401 -1.22197 0.103353
5.76127 -1.22355 1.14485
5.7792501 -1.22947 1.3641
5.7836699 -1.23041 -0.103214
5.7582698 -1.23447 0.102795
5.7576199 -1.24064 -0.72317302
5.72648 -1.23602 1.13875
5.7484698 -1.24286 1.3578
5.73032 -1.24103 1.57103
5.7244601 -1.2512701 0.51265001
5.7094402 -1.25217 0.92577899
5.7350402 -1.25883 -0.51369601
5.7014298 -1.25563 1.5642999
5.7003899 -1.26792 0.51090699
5.6870399 -1.26599 0.71537298
5.67907 -1.26526 -0.71439803
5.67033 -1.2643501 0.92014802
5.7033901 -1.27277 -0.51125598
5.6849098 -1.26969 1.13226
5.6766801 -1.26993 1.34296
5.6650901 -1.2673399 -0.101329
5.66289 -1.28034 0.50794399
5.6350598 -1.27715 0.915142
5.6561599 -1.28297 -0.50742102
5.65556 -1.28387 1.1273
5.6675901 -1.28765 -0.30459499
5.6475101 -1.28412 1.33711
5.64503 -1.28356 -0.101049
5.6322498 -1.28168 1.54774
5.6371598 -1.29108 0.100945
5.6292601 -1.2934099 0.50532901
5.6335702 -1.2954299 0.70976698
5.62253 -1.296 -0.50480598
5.63799 -1.3006001 -0.30323499
5.6132398 -1.29695 -0.100561
5.6092501 -1.30531 0.100526
5.61238 -1.31327 -0.50428301
5.6047802 -1.3156199 -0.100491
5.5799098 -1.31081 1.53583
5.5893002 -1.32435 0.50253999
5.5825601 -1.32687 -0.50201702
5.5541801 -1.3211401 1.10975
5.5650001 -1.33604 0.099897601
5.5402699 -1.33215 0.29862899
5.5613999 -1.33825 0.50044799
5.5321898 -1.33531 0.901375
5.5623999 -1.3426 -0.50062299
5.53617 -1.3372999 1.10707
5.5464101 -1.34079 -0.29904801
5.5199299 -1.33745 1.52186
5.5218601 -1.3491499 0.497311
5.5146599 -1.34943 0.69709301
5.5163598 -1.35086 -0.69733602
5.5006299 -1.34803 0.89699501
5.5105 -1.35147 1.10288
5.52424 -1.35586 -0.29810601
5.50525 -1.3522201 1.3087699
5.4852099 -1.3493299 1.51357
5.48487 -1.36245 0.69392401
5.4884701 -1.36436 0.89574403
5.47717 -1.36358 1.09715
5.5078402 -1.3722399 -0.29747799
5.4910402 -1.3690701 -0.098780602
5.46946 -1.3647 1.51047
5.48559 -1.3789001 0.29643101
5.4723802 -1.37965 -0.692949
5.4683499 -1.37964 0.89324099
5.4572501 -1.37786 -0.49243
5.4478698 -1.37549 1.09219
5.4619098 -1.38106 1.30067
5.4328198 -1.37572 1.50167
5.4136901 -1.3849601 -0.68612403
5.4155302 -1.38946 1.2907701
5.4092798 -1.38987 1.49649
5.4307299 -1.40347 0.097907998
5.41787 -1.40317 0.48964101
5.3994598 -1.40042 0.68490601
5.3963399 -1.40262 1.0838
5.3987098 -1.40425 -0.29234901
5.3948498 -1.4143 0.097349502
5.3808498 -1.41666 -0.6832
5.3619099 -1.41267 0.878223
5.3734102 -1.4157 -0.486155
5.3705201 -1.4159499 1.0796
5.3661299 -1.41679 1.28132
5.3766499 -1.42057 -0.097070299
5.35462 -1.41575 1.4840699
5.3463302 -1.4245501 0.484063
5.34902 -1.42826 -0.67978698
5.3455 -1.4283201 0.87634599
5.3588099 -1.43188 -0.48528299
5.3351998 -1.4265701 1.07349
5.3559699 -1.43312 -0.29056901
5.33078 -1.43736 0.096372202
5.2959299 -1.43788 1.26692
5.3241501 -1.44654 -0.096302398
5.2961402 -1.4399199 1.47061
5.30935 -1.45447 0.48162299
5.2855701 -1.44994 0.67296302
5.2891502 -1.45191 -0.67344999
5.2953901 -1.45462 0.86977601
5.28157 -1.45181 1.06471
5.2814798 -1.45377 1.26467
5.2705898 -1.45275 1.46492
5.2655001 -1.4612401 0.28638199
5.2831302 -1.4671299 0.47970501
5.2649202 -1.46504 -0.671013
5.2916999 -1.47349 -0.48057699
5.2733302 -1.47036 -0.286906
5.2463398 -1.46382 1.25748
5.2734799 -1.47238 -0.095569402
5.2673101 -1.47958 0.095499597
5.2337799 -1.47706 0.86132801
5.23352 -1.47798 1.05708
5.24895 -1.48332 -0.28585899
5.2279 -1.47935 -0.094836399
5.2082801 -1.47478 1.45042
5.2133598 -1.48703 0.47430199
5.21067 -1.48922 -0.665407
5.2076998 -1.48935 0.85788703
5.2084899 -1.48958 -0.47395301
5.20191 -1.48868 1.0517401
5.18081 -1.48655 1.4442101
5.1828198 -1.49986 0.66248202
5.18256 -1.50077 -0.66248202
5.1891899 -1.50367 0.85569698
5.17028 -1.4991699 1.0464
5.1866798 -1.50491 -0.28303301
5.1828799 -1.50576 -0.094208099
5.1824198 -1.51446 0.094242997
5.1546898 -1.51125 0.65955698
5.16116 -1.5151 0.851942
5.1556001 -1.5144399 1.04449
5.16223 -1.51737 -0.281986
5.1356502 -1.51053 1.23588
5.1377101 -1.52283 0.280835
5.1440201 -1.5256799 0.469421
5.1360698 -1.52527 0.65785098
5.12819 -1.52391 -0.65687603
5.14677 -1.5304101 -0.469769
5.1258202 -1.5251499 1.03953
5.13585 -1.52911 -0.280835
5.1200099 -1.5351 0.093300603
5.1189699 -1.5367399 0.28010201
5.1157699 -1.53675 0.467329
5.1133299 -1.53894 -0.65565699
5.119 -1.54357 -0.28020701
5.0970001 -1.5379 1.22913
5.0837302 -1.53584 1.42299
5.0854201 -1.54895 0.65273201
5.0978498 -1.55468 -0.46628299
5.07373 -1.54829 1.03113
5.0711002 -1.54942 1.22418
5.0886798 -1.55577 -0.092881702
5.05617 -1.54679 1.41678
5.0630202 -1.55952 0.463494
5.0534201 -1.5585001 0.64932001
5.0626302 -1.56231 -0.65053898
5.05268 -1.5602 0.83754998
5.06955 -1.56541 -0.46419099
5.04391 -1.55846 1.02617
5.0604 -1.56452 -0.27759001
5.0582099 -1.56481 1.22238
5.0378199 -1.56043 1.41315
5.0423298 -1.57244 0.4621
5.02494 -1.56991 -0.64639503
5.0321202 -1.57311 0.83504701
5.04884 -1.5783401 -0.46279699
5.0215802 -1.57078 1.02274
5.0377498 -1.5768 -0.27664801
5.0433502 -1.58049 -0.092253402
5.0139098 -1.57223 1.40798
5.0096798 -1.57954 0.275287
5.0005102 -1.58145 0.83066702
5.0104499 -1.58652 1.02159
5.0131798 -1.5883501 -0.275601
4.98841 -1.58242 1.40228
4.9908099 -1.59277 0.27455401
4.9841599 -1.59352 0.64249498
4.97615 -1.59288 0.82753801
4.9752498 -1.59355 1.0154901
4.9750299 -1.59539 1.20619
4.96773 -1.59401 -0.091066703
4.9615698 -1.60541 0.640302
4.9499602 -1.60261 -0.63883901
4.9565001 -1.60568 -0.45582399
4.9718499 -1.6125799 -0.27392599
4.9507298 -1.60763 -0.0908572
4.9331498 -1.60288 1.38986
4.9548898 -1.6195101 0.27319399
4.9254699 -1.6137 -0.63640201
4.9386201 -1.61896 0.82315803
4.9210901 -1.61417 1.0067101
4.93785 -1.62157 1.19989
4.9412899 -1.62366 -0.090787403
4.91468 -1.61586 1.38623
4.9216399 -1.62577 0.090473302
4.9134598 -1.62402 0.27120501
4.92173 -1.62866 0.45355901
4.9182301 -1.63036 0.82065499
4.91119 -1.63088 -0.27120501
4.9027801 -1.6414 0.45233801
4.8845401 -1.63624 0.63250202
4.88237 -1.6364599 -0.632258
4.8769202 -1.6355799 0.81471097
4.8924999 -1.64271 -0.27047199
4.8761001 -1.64004 1.3784699
4.8801498 -1.64899 0.089914799
4.8708901 -1.64871 0.449898
4.8580899 -1.64815 0.81252098
4.8688898 -1.65277 0.99945801
4.8810701 -1.65785 -0.27015799
4.85993 -1.65256 -0.089600697
4.83743 -1.6458499 1.36915
4.85355 -1.6589 0.089530803
4.8565001 -1.66181 0.269007
4.8389101 -1.65956 -0.628115
4.8392301 -1.66061 0.81033099
4.8541799 -1.6685899 -0.269007
4.8503499 -1.66822 -0.089530803
4.8213201 -1.67047 0.446412
4.8162098 -1.67059 0.62592101
4.8239198 -1.67515 -0.44676
4.8031602 -1.66888 0.98839098
4.7953601 -1.68213 0.62397099
4.78758 -1.6803401 -0.62299597
4.77075 -1.69222 0.62153399
4.76297 -1.6904 -0.62055898
4.78019 -1.69745 -0.44379699
4.77104 -1.69514 0.98419303
4.7529202 -1.7027299 0.44170499
4.7551799 -1.70635 -0.62031502
4.7501998 -1.7055 0.79938
4.7466202 -1.70515 0.98037702
4.7552299 -1.70918 -0.26482001
4.7389302 -1.7136 0.087960102
4.7156 -1.71075 -0.61592799
4.7270198 -1.71582 -0.439962
4.7251401 -1.71794 1.16075
4.7035599 -1.71196 1.3412
4.7122598 -1.72258 0.087576203
4.7134199 -1.72487 0.26304099
4.7147198 -1.72628 0.43926501
4.7005801 -1.72296 0.61470902
4.7002802 -1.72378 -0.61470902
4.7010899 -1.72501 0.79312301
4.6903701 -1.722 0.97121799
4.7026501 -1.72838 1.1567
4.6848698 -1.7237 1.33758
4.68332 -1.73148 0.26168001
4.6740599 -1.73177 0.612028
4.6703401 -1.73039 -0.61154002
4.6768198 -1.7337199 0.789994
4.6925101 -1.7404701 -0.43787
4.6732798 -1.73427 0.96892798
4.66401 -1.73175 1.1486
4.6719398 -1.74491 0.26136601
4.6729999 -1.74716 0.43647599
4.6589999 -1.74378 0.61080903
4.66432 -1.74763 -0.43577901
4.6546402 -1.74493 0.96625698
4.6638899 -1.74933 -0.26105201
4.6462002 -1.74454 1.32981
4.6466799 -1.75491 0.43455899
4.6457601 -1.75641 0.60983402
4.6335001 -1.75363 0.784675
4.6398702 -1.75604 -0.43403599
4.6378102 -1.75618 0.96396703
4.6487198 -1.76124 -0.260528
4.6229601 -1.7524101 1.1414
4.6220198 -1.7539001 1.32464
4.6241899 -1.76396 0.259377
4.6219101 -1.76401 0.43281499
4.6181302 -1.76626 0.78311098
4.59865 -1.75973 0.95709801
4.6294899 -1.77246 -0.25979599
4.5945001 -1.77379 0.604716
4.6048799 -1.78057 -0.43194401
4.5851498 -1.77294 0.95557201
4.5984502 -1.7808501 -0.086075298
4.5708199 -1.78025 0.257074
4.5787201 -1.78701 -0.60349703
4.5763698 -1.78793 -0.42985201
4.5585098 -1.78187 0.95137399
4.5925102 -1.79609 -0.25843501
4.5735898 -1.78961 -0.085726202
4.5692301 -1.78882 1.3148
4.559 -1.794 0.25676
4.5602398 -1.79632 0.42880601
4.5595298 -1.7978801 0.60179102
4.5573702 -1.79795 -0.601547
4.5516 -1.79568 0.77497602
4.5504398 -1.79705 0.95099199
4.5546298 -1.79963 -0.25665599
4.5342999 -1.79251 1.1256599
4.5458899 -1.8053499 0.085377201
4.5489998 -1.80843 0.256551
4.5304599 -1.80656 -0.42671499
4.5225701 -1.8034101 0.94641298
4.5081902 -1.80132 1.30082
4.5222702 -1.81611 0.25539899
4.5090799 -1.81172 0.42514601
4.4372702 -1.78377 -0.757456
4.50635 -1.81337 -0.59642899
4.5096402 -1.8156101 0.76997101
4.50211 -1.81531 1.12071
4.4893298 -1.81199 1.2972
4.4815998 -1.82161 -0.59399098
4.4977798 -1.8291 0.769032
4.4959102 -1.8283401 -0.42462301
4.4885201 -1.8280801 1.11891
4.47225 -1.82327 1.2941
4.4338498 -1.81845 -0.75901997
4.45502 -1.82895 -0.59131002
4.4671202 -1.83574 0.93878001
4.4647298 -1.83567 -0.252992
4.4568801 -1.83336 1.11261
4.4713898 -1.84023 -0.084399797
4.4587102 -1.83593 1.29202
4.4548802 -1.84436 0.42183399
4.44526 -1.8422 0.59082299
4.4339399 -1.83841 -0.58936
4.4443598 -1.84455 0.93534601
4.44908 -1.84742 -0.252469
4.4326501 -1.84332 1.28633
4.4398699 -1.8536 0.083981
4.4319701 -1.85212 0.25173599
4.4281998 -1.85145 0.419916
4.4278202 -1.8530999 0.58936
4.4306502 -1.85702 0.933819
4.43892 -1.86139 -0.25225899
4.4242101 -1.85613 1.1076601
4.3994799 -1.84756 1.2785701
4.4033499 -1.85914 0.41817299
4.4066901 -1.86237 0.58740997
4.40271 -1.86159 -0.586923
4.4026699 -1.86248 0.75714302
4.3983798 -1.86066 -0.41782501
4.3934102 -1.85946 0.92733198
4.4033499 -1.8654799 1.1040601
4.4039998 -1.86667 -0.083492301
4.3895102 -1.87138 0.417476
4.3928599 -1.87462 -0.58643502
4.3835802 -1.87428 -0.249852
4.36726 -1.8691 1.2728699
4.3671298 -1.87717 0.249119
4.3686299 -1.87962 0.41608101
4.3600402 -1.87683 -0.75182402
4.3537998 -1.8750401 0.582048
4.3666401 -1.88147 0.75307602
4.3673201 -1.88267 -0.41608101
4.3590202 -1.88 0.92275202
4.36766 -1.88553 -0.083038598
4.3504 -1.87898 1.26977
4.3481798 -1.8852299 0.0827244
4.3501701 -1.8897001 -0.75119799
4.3439202 -1.88789 0.58156103
4.3435898 -1.8886499 -0.58156103
4.3383098 -1.8872499 0.74932098
4.3515902 -1.89393 -0.41521001
4.3455601 -1.89131 0.92122602
4.3527398 -1.89533 -0.248805
4.3288598 -1.88583 1.0901099
4.33673 -1.89107 1.2677
4.32621 -1.89727 0.413293
4.3263998 -1.89825 0.58009797
4.32446 -1.8992 0.74807
4.3293099 -1.90404 -0.24786299
4.3053198 -1.90336 0.082165897
4.31036 -1.90739 0.247026
4.3068099 -1.90672 0.412072
4.3094401 -1.90878 -0.74650502
4.2972999 -1.9052 -0.57717299
4.2994099 -1.90703 0.744941
4.29423 -1.90563 0.913212
4.2992201 -1.90964 1.08606
4.2718902 -1.89929 1.2526799
4.2909098 -1.91672 0.24629299
4.2983098 -1.92093 0.41189799
4.2901301 -1.91817 -0.74431503
4.28338 -1.91694 -0.57619798
4.2891202 -1.92041 0.74431503
4.2705302 -1.9165601 1.25424
4.2690001 -1.92663 -0.74181199
4.25348 -1.9205199 0.57302999
4.2733898 -1.9313101 0.742751
4.2563601 -1.9254 -0.244828
4.2520499 -1.92434 1.07752
4.26999 -1.93336 -0.081816897
4.23562 -1.9276 0.24388599
4.2575898 -1.9385 0.40928301
4.2319598 -1.92951 -0.57108003
4.24718 -1.93734 -0.40841201
4.22684 -1.93163 -0.0811188
4.22717 -1.93267 1.24544
4.2342501 -1.94575 -0.73805797
4.2147198 -1.93855 -0.56961697
4.22263 -1.94309 -0.40666899
4.2301002 -1.94742 0.90519798
4.2286401 -1.9476399 -0.24399
4.2076998 -1.93977 -0.080874503
4.2119002 -1.9497401 0.081014097
4.2025199 -1.95075 -0.56888598
4.2013202 -1.95108 0.73367798
4.1977501 -1.94942 -0.404926
4.1841502 -1.94754 1.23664
4.18507 -1.95776 0.404228
4.1787801 -1.96015 -0.241897
4.1813798 -1.96315 -0.080630101
4.1710501 -1.96631 0.0804905
4.1743498 -1.97142 -0.73117501
4.1550398 -1.96319 0.564255
4.1679602 -1.9710701 0.73023599
4.1529999 -1.96666 1.0608701
4.1672702 -1.97431 -0.0804905
4.1457801 -1.9738801 0.240641
4.1515198 -1.9775 0.402311
4.1427898 -1.9751199 0.56352401
4.1424499 -1.97585 -0.56352401
4.1396599 -1.9754 0.72648197
4.1591201 -1.98469 -0.403182
4.1433601 -1.97895 -0.240641
4.13871 -1.9785 -0.080071598
4.1373801 -1.97875 1.22887
4.1374002 -1.98586 0.080106497
4.13166 -1.98488 0.24022201
4.1322899 -1.98785 0.56303602
4.1216502 -1.9845001 -0.40021899
4.1317902 -1.99027 0.89146
4.1310301 -1.9908 -0.240327
4.11376 -1.9842401 -0.079722598
4.12146 -1.99683 0.240013
4.1037102 -1.99088 -0.72241402
4.0994601 -1.99059 0.721789
4.1057401 -1.99453 -0.39934799
4.0855999 -1.98827 1.2174799
4.0865698 -2.0002201 0.558649
4.09692 -2.00617 -0.560112
4.1031299 -2.0100999 0.72366601
4.0862298 -2.0027101 -0.39812699
4.0904899 -2.0056801 -0.238757
4.0800099 -2.00142 1.04917
4.09478 -2.0095601 -0.079617903
4.0697999 -2.00701 0.23781499
4.0783801 -2.01566 0.72053701
4.0795698 -2.0162499 -0.39812699
4.0727201 -2.0146301 -0.238129
4.0751901 -2.0176301 -0.079373501
4.0577698 -2.0098801 1.21334
4.06354 -2.02335 -0.71897298
4.05439 -2.02056 -0.55621201
4.06359 -2.0260301 -0.39725599
4.06004 -2.02514 0.88191903
4.0549402 -2.02349 -0.237501
4.0438199 -2.0205801 1.21127
4.0342698 -2.0246201 0.236559
4.0418901 -2.02932 0.39568701
4.0458598 -2.0322001 -0.71709597
4.0352502 -2.02775 0.554506
4.0389099 -2.0322399 0.87886602
4.00914 -2.0207701 1.2029901
4.0203199 -2.0334499 0.078640498
4.0218401 -2.03598 0.23624501
4.01929 -2.0373399 0.55328703
4.01301 -2.0359099 0.71271598
4.0142899 -2.0374501 0.87505001
4.0264702 -2.0445099 -0.236663
3.99862 -2.033 1.20196
3.9958899 -2.04392 -0.55109298
3.98967 -2.0425 0.871234
3.9979801 -2.0476301 -0.23540699
3.98841 -2.0444901 1.20092
3.9974899 -2.0562 0.078465998
3.9948699 -2.0583701 -0.71177697
3.9682801 -2.0455501 0.548168
3.9732101 -2.04897 -0.54890001
3.9902799 -2.05865 0.711151
3.9924099 -2.0606401 -0.39307201
3.9734199 -2.0517099 -0.23435999
3.9988599 -2.0666201 -0.078570701
3.9746301 -2.0646501 0.39185199
3.9662299 -2.0655701 -0.23435999
3.9561601 -2.0620799 -0.077872597
3.9517801 -2.0606699 1.19419
3.96 -2.072 0.078012303
3.9511499 -2.0708799 0.39028299
3.93733 -2.0662701 0.70426798
3.9472101 -2.07321 0.86665499
3.95156 -2.07638 -0.233942
3.93629 -2.0692301 1.02668
3.94186 -2.07216 -0.077733003
3.92939 -2.0743599 0.077558503
3.93978 -2.0816 0.233523
3.92629 -2.07535 0.38854
3.93256 -2.07955 -0.70458102
3.91996 -2.07376 0.54451197
3.93012 -2.0800099 -0.54597503
3.92484 -2.07809 -0.38854
3.92607 -2.0796199 0.86360198
3.92732 -2.0820401 1.02623
3.9137399 -2.08623 0.388017
3.90218 -2.08182 0.54304999
3.9070799 -2.08531 -0.54378098
3.9193101 -2.09272 -0.388715
3.9052601 -2.0869701 -0.232058
3.9131501 -2.0920601 1.02443
3.8972499 -2.08531 1.18436
3.9042499 -2.0960701 0.077349097
3.8988099 -2.0966599 -0.70113897
3.9014599 -2.1007199 -0.387669
3.88553 -2.09302 0.85787702
3.8988199 -2.1019299 -0.077314198
3.8784101 -2.0918 1.18073
3.8900299 -2.1068399 0.231848
3.8850701 -2.1059101 0.386623
3.8659899 -2.10256 1.17918
3.87233 -2.1130199 0.077
3.86058 -2.10923 0.38488001
3.8740499 -2.11747 -0.69926202
3.8403699 -2.10515 1.17349
3.84778 -2.11621 0.076650999
3.8382199 -2.1170599 0.69425601
3.8349199 -2.1161201 0.85139
3.82792 -2.1157401 1.17193
3.82674 -2.12556 -0.69331801
3.8239901 -2.1257901 -0.53719997
3.8341899 -2.1323299 -0.383834
3.8137901 -2.12186 0.84833699
3.82061 -2.1273999 1.00958
3.8331599 -2.1343801 -0.076581202
3.8124499 -2.1237199 1.16934
3.82107 -2.13552 0.076406598
3.81218 -2.1322999 0.228917
3.8143201 -2.1352501 0.38243899
3.81794 -2.13728 -0.69300503
3.7999799 -2.1280899 0.53476298
3.8030701 -2.1306901 -0.53525001
3.8148 -2.13989 -0.229232
3.80164 -2.1333799 1.00643
3.7965901 -2.1322899 1.16676
3.8024499 -2.1487 -0.69175297
3.78967 -2.14235 0.53451902
3.7913001 -2.14589 0.84680998
3.7974899 -2.15027 -0.228708
3.78457 -2.14382 1.00418
3.7795999 -2.14275 1.16417
3.7910299 -2.15623 0.076127402
3.77525 -2.1489999 0.227661
3.78125 -2.15329 0.380696
3.78635 -2.1570699 -0.690189
3.777 -2.1526101 0.53378803
3.7697201 -2.1493399 -0.53281301
3.77321 -2.1522 0.68799901
3.7797401 -2.15593 -0.380696
3.7718501 -2.1522999 0.84413898
3.7882299 -2.1625199 -0.22860301
3.7686 -2.15219 1.00193
3.76266 -2.1575201 0.075708501
3.7681 -2.16151 0.227661
3.7618301 -2.1631501 -0.37965
3.75806 -2.16273 1.00103
3.7623601 -2.16607 -0.075778298
3.7381401 -2.1530001 1.15589
3.7451 -2.16398 0.075499102
3.7527101 -2.171 0.379302
3.7527699 -2.17191 -0.68674701
3.7313399 -2.1603701 0.52939999
3.7467999 -2.1693201 -0.53159398
3.7509601 -2.17523 -0.22724301
3.7390699 -2.16834 0.99788302
3.7274101 -2.17202 0.226091
3.7239299 -2.17435 0.68299299
3.7332599 -2.18067 -0.37825599
3.7295499 -2.1802499 -0.22640499
3.72645 -2.18805 0.075429298
3.70737 -2.17858 0.22535899
3.72715 -2.1910801 0.37825599
3.72049 -2.18804 -0.68361902
3.7059 -2.18033 0.52793801
3.70381 -2.17997 -0.52769399
3.70121 -2.1801801 -0.37581599
3.7163701 -2.19086 -0.226091
3.71191 -2.1891 -0.075219899
3.69875 -2.18221 1.15071
3.6932001 -2.1937301 0.83498001
3.68189 -2.18875 0.98888499
3.6832299 -2.1982601 0.074870802
3.68312 -2.19994 0.22483499
3.681 -2.2004199 -0.67923802
3.68471 -2.20438 -0.52720702
3.68557 -2.20751 -0.22514901
3.67255 -2.2005899 0.98843497
3.6772799 -2.2042999 -0.074835896
3.6532199 -2.1907401 1.14139
3.66696 -2.20595 0.074696302
3.6672399 -2.20699 0.22431201
3.6742201 -2.2155499 0.67955101
3.6508801 -2.2023499 -0.373027
3.66416 -2.21211 -0.22431201
3.6428599 -2.21228 0.52330703
3.6420801 -2.2161601 -0.074417099
3.6303599 -2.2098999 1.1388
3.6454301 -2.2260499 0.074556701
3.6299801 -2.2183599 0.22295099
3.6224501 -2.2146201 0.37145799
3.63832 -2.2251999 -0.675484
3.6249499 -2.21876 -0.52184498
3.6287301 -2.22194 0.67391998
3.6392 -2.2292299 -0.373375
3.6324699 -2.22598 0.82811099
3.6118801 -2.2142301 0.97808701
3.6235299 -2.2327001 0.223056
3.61939 -2.23102 0.37198099
3.6183701 -2.2312601 -0.67329401
3.60727 -2.2279 -0.37093499
3.6091299 -2.2316501 -0.074068002
3.59145 -2.22159 1.13156
3.60553 -2.2390101 0.22242799
3.5984199 -2.23721 -0.67110401
3.5955 -2.2362599 0.51989502
3.5926299 -2.2379601 0.97718698
3.5771101 -2.23002 1.12949
3.5791299 -2.23823 0.073684096
3.5845399 -2.24248 0.22159
3.59022 -2.2477801 0.37058601
3.5762899 -2.2407899 0.51818901
3.5801499 -2.2440901 0.669227
3.58021 -2.2449901 -0.36971501
3.56738 -2.2378199 0.81857097
3.5851901 -2.24986 0.97718698
3.5853801 -2.25085 -0.073893502
3.5649199 -2.25278 0.81971502
3.5608399 -2.25194 0.97268802
3.56567 -2.2558701 -0.073649198
3.5520599 -2.2481201 1.12638
3.5529799 -2.25827 0.36831999
3.55392 -2.2597401 -0.66703701
3.5371101 -2.2507801 -0.51477599
3.5520699 -2.2620499 0.81857097
3.5398099 -2.25598 0.96908897
3.5425999 -2.25863 -0.073334999
3.5441 -2.2674201 0.073439702
3.53333 -2.2631299 0.3671
3.5360301 -2.2657399 -0.66515899
3.5413301 -2.27 0.516482
3.53424 -2.26807 0.81628102
3.5379 -2.2712901 -0.22033399
3.5216501 -2.2634599 1.12172
3.5176799 -2.2678599 0.073055796
3.5214601 -2.2737801 -0.663908
3.51297 -2.27004 -0.51355702
3.51476 -2.2729299 0.81361002
3.5198901 -2.2771201 -0.219706
3.5141599 -2.2742801 0.96639001
3.5099599 -2.2724299 -0.072985999
3.5097001 -2.2818401 0.219392
3.4971099 -2.2762599 0.512339
3.50734 -2.2846601 0.66296899
3.49967 -2.28228 0.96459001
3.4879701 -2.2763801 1.11603
3.48858 -2.28809 -0.660779
3.48084 -2.28301 0.51112002
3.4737999 -2.2792599 -0.51014501
3.48035 -2.28617 0.809412
3.4818101 -2.2879901 -0.218346
3.4749999 -2.28439 0.96009099
3.48332 -2.2985699 0.072846301
3.4761 -2.2999101 -0.36465999
3.4723499 -2.2983 0.809412
3.4621301 -2.2932701 0.95874101
3.4642999 -2.2947099 -0.072532199
3.45911 -2.29214 1.11189
3.44982 -2.29987 -0.36274201
3.4446299 -2.2990201 -0.072287902
3.43502 -2.2934699 1.10671
