# .PCD v0.7 - Point Cloud Data file format
VERSION 0.7
FIELDS x y z
SIZE 4 4 4
TYPE F F F
COUNT 1 1 1
WIDTH 654
HEIGHT 1
VIEWPOINT 0 0 0 1 0 0 0
POINTS 654
DATA ascii
5.2399902 1.49858 0.86320502
5.2413101 1.49599 1.2583801
5.2386599 1.48536 0.095045798
5.2509699 1.48588 0.47743899
5.2456298 1.48239 0.66930598
5.25279 1.48243 0.86445701
5.2616 1.48492 -0.478311
5.2416 1.4782799 1.05861
5.24998 1.47966 -0.28585899
5.2294402 1.47092 1.4556
5.2456298 1.46559 0.28544
5.2657199 1.47022 0.478311
5.2469501 1.4630001 0.66881901
5.2542901 1.46208 1.06013
5.27492 1.45197 0.478659
5.26682 1.44677 0.86508298
5.2625799 1.44165 1.25973
5.2773399 1.4358 0.095464699
5.2747698 1.42917 -0.671013
5.27565 1.42941 0.86570799
5.27599 1.42752 1.06242
5.2520099 1.41809 1.45767
5.2839999 1.41881 0.095499597
5.2799802 1.41576 0.28648701
5.2830701 1.41362 0.67150003
5.2909899 1.41475 -0.67247498
5.2859101 1.41141 -0.478659
5.2971501 1.41342 -0.28732401
5.2816801 1.4083101 1.2619801
5.2828498 1.40763 -0.0954298
5.2644 1.4017299 1.45974
5.2792501 1.3978 0.095325001
5.3030701 1.40113 0.47987899
5.28932 1.39355 0.86633402
5.30405 1.3974299 -0.47987899
5.2885299 1.3913701 -0.28659201
5.2922201 1.39135 1.26333
5.2878098 1.37836 0.28638199
5.3021498 1.38111 0.479357
5.2908902 1.3762 0.67125601
5.2930498 1.37578 -0.67150003
5.3049502 1.37591 -0.28722
5.2857299 1.36993 1.26063
5.3072 1.36068 0.672719
5.30936 1.36025 -0.67296302
5.2989202 1.35659 0.86633402
5.3175402 1.36136 -0.48022801
5.3232698 1.36084 -0.28795201
5.2961402 1.3529299 1.2619801
5.3246198 1.3503 0.095883504
5.3126001 1.34035 -0.479357
5.31217 1.33728 1.26467
5.2965698 1.33139 1.46336
5.3232698 1.32823 0.287534
5.3298998 1.32099 -0.095848598
5.3261499 1.31119 0.095743902
5.3348799 1.30741 -0.67442501
5.3358598 1.3066601 0.87008899
5.3469801 1.3093899 -0.48162299
5.3411102 1.30597 -0.28816199
5.3289499 1.30202 1.26647
5.3422499 1.30428 -0.095988199
5.33533 1.28878 -0.67393702
5.3396702 1.2888499 -0.48057699
5.3415298 1.28732 -0.28795201
5.3306599 1.28175 1.4690599
5.3505101 1.27862 0.096023098
5.3347201 1.27288 0.287429
5.3645701 1.2790101 0.482494
5.3530898 1.2743 0.67564398
5.3484802 1.27123 0.87071401
5.3452702 1.2675101 1.26827
5.3554301 1.25709 0.48127401
5.35673 1.25345 0.87133998
5.3601799 1.2542599 -0.48162299
5.3623099 1.25377 1.0704401
5.3515601 1.24929 1.26872
5.3772502 1.24242 0.48284301
5.3850698 1.24225 0.67856902
5.3742399 1.23778 -0.482494
5.3786802 1.23584 1.27412
5.3733702 1.2336299 -0.096232601
5.3475599 1.22672 1.47009
5.3772502 1.22563 0.096267499
5.3854399 1.22453 0.48319101
5.38378 1.22119 -0.67783701
5.3865399 1.22083 0.87478203
5.3670998 1.21544 1.06968
5.38625 1.2187901 -0.28941801
5.3913002 1.21795 -0.096476898
5.3593502 1.2097501 1.47216
5.3838501 1.20442 0.48266801
5.38199 1.2020299 0.67710602
5.4099698 1.2063 -0.48493499
5.3814702 1.19699 1.27277
5.39747 1.19956 -0.096511804
5.4032502 1.1919399 0.096581601
5.3873301 1.18645 0.28910401
5.39605 1.18443 -0.678325
5.4044199 1.18527 -0.484063
5.4003801 1.1834 1.07464
5.39853 1.1820101 -0.28962699
5.3859901 1.17729 -0.096232601
5.3846502 1.17601 1.47682
5.3972902 1.16891 0.28941801
5.4018602 1.16891 0.48354
5.3971 1.16394 0.87446898
5.4046302 1.16556 -0.48371401
5.38872 1.15721 1.47682
5.4036198 1.1525199 0.096441999
5.4148102 1.1539201 0.290151
5.4098101 1.14891 0.67905599
5.4158401 1.1492 -0.67978698
5.4086599 1.14767 0.87572002
5.4106102 1.1471 -0.48388901
5.4008298 1.14405 1.07311
5.4165902 1.1454099 1.27817
5.3944201 1.13973 1.47734
5.4176898 1.1328 0.48423699
5.4235101 1.13204 -0.68027502
5.4203701 1.1303999 0.87697202
5.4282398 1.13105 -0.485109
5.42801 1.13002 -0.29056901
5.4270101 1.11894 0.096721202
5.4235401 1.1123101 -0.67978698
5.4358902 1.11385 0.87884903
5.4173899 1.10513 1.48148
5.4367599 1.10118 0.096825898
5.4246402 1.09675 0.29004601
5.4293299 1.09376 -0.680031
5.4300599 1.0929199 0.877285
5.43542 1.0930099 1.07769
5.4281001 1.08957 1.27817
5.43258 1.0885 1.4845901
5.44449 1.08298 0.096895799
5.4447999 1.0771101 -0.68149298
5.4513102 1.07543 -0.291197
5.4356899 1.07137 1.27907
5.4387102 1.07098 -0.096756101
5.4491901 1.05724 0.87916201
5.4746399 1.0602 -0.29224399
5.4470501 1.05387 1.28087
5.45223 1.05388 -0.096930698
5.45016 1.0416501 0.485457
5.4619398 1.04093 -0.68271202
5.46838 1.04117 0.88166499
5.4465699 1.0360399 1.07769
5.4665298 1.0388401 -0.29161599
5.45644 1.0359401 1.28222
5.4716001 1.03783 -0.097209901
5.4493699 1.03262 1.48614
5.4633899 1.02738 0.097035401
5.46102 1.02496 0.291197
5.4595098 1.0217201 0.68198103
5.4700398 1.02171 0.88135201
5.4760199 1.02283 -0.48737499
5.4760098 1.0208499 -0.29192999
5.4523602 1.01546 1.2804199
5.4662399 1.01607 1.48976
5.48071 1.01085 0.097279698
5.4684901 1.00662 0.29140699
5.4788499 1.00754 0.48737499
5.46907 1.00278 -0.68271202
5.4657998 1.0011899 0.88010001
5.4836502 1.0034699 -0.48772401
5.4749098 1.00187 1.08189
5.4815102 1.00209 -0.29203501
5.4678502 0.99663699 1.4892401
5.4837699 0.98965001 0.29203501
5.4766202 0.98638999 0.48685199
5.4821401 0.98639202 0.68393099
5.4871202 0.98432302 -0.48772401
5.49014 0.983877 1.08418
5.4910402 0.98304898 -0.29234901
5.5323801 0.98945302 1.29752
5.4861002 0.98117602 -0.097279698
5.4897699 0.97194898 0.097314604
5.4839602 0.96795797 0.48720101
5.4935298 0.96767098 0.68490601
5.4995699 0.96774501 -0.685637
5.4843202 0.96506202 0.88197798
5.4944401 0.96585202 -0.48807201
5.4858098 0.96334898 1.0826499
5.4954 0.963054 -0.097384401
5.49297 0.95373702 0.097314604
5.4951601 0.95016599 0.48789799
5.4976101 0.94564998 -0.29234901
5.5620399 0.955733 1.30292
5.5046401 0.94488502 -0.097489104
5.5100598 0.93690199 0.097558998
5.51792 0.93526602 0.48964101
5.49999 0.93025601 0.68490601
5.5205402 0.93174797 -0.489815
5.5067801 0.92744702 -0.29266301
5.5231199 0.91632903 0.489815
5.5110402 0.91234702 0.68588102
5.5178699 0.90952301 -0.29308099
5.5342302 0.901308 0.097873099
5.5258298 0.89796001 0.29339501
5.52038 0.89608502 0.489292
5.51827 0.89277703 -0.68636799
5.5050702 0.88965201 0.88322902
5.5295801 0.892627 1.08876
5.52213 0.88845801 -0.097628802
5.5349202 0.87664503 0.68807399
5.53266 0.87331802 1.08876
5.5402899 0.859662 0.490513
5.5422301 0.85699201 0.88823497
5.52986 0.85310298 1.08761
5.5428801 0.85412198 -0.293919
5.55968 0.855717 -0.098187201
5.5590401 0.84668201 0.098152302
5.5511298 0.84151101 0.49121001
5.53894 0.83768803 -0.68783098
5.5501299 0.83739799 1.09105
5.5575299 0.837524 -0.29454699
5.5547199 0.83511698 -0.098047599
5.5515199 0.82373703 0.294128
5.5496898 0.819507 -0.688806
5.5441699 0.81770301 0.887609
5.5781202 0.82270998 -0.49330199
5.5683298 0.81928098 -0.294965
5.56354 0.81659198 -0.098152302
5.5587001 0.803994 0.491384
5.55481 0.79947197 0.888861
5.5770102 0.80266798 -0.492953
5.5790601 0.80097502 -0.29538399
5.5788898 0.78803301 0.29528001
5.5806899 0.78530902 0.69197398
5.5693002 0.781726 0.89073801
5.5721998 0.781138 1.09372
5.5857801 0.78204799 -0.29559401
5.5829601 0.77966702 -0.098396704
5.58814 0.77144402 0.098466501
5.5934801 0.77019 0.295908
5.5937901 0.76923901 0.493999
5.5893002 0.76663399 0.69270498
5.5876498 0.76442099 0.89324099
5.5943198 0.765333 -0.493999
5.5651698 0.76035303 1.09181
5.5845199 0.76200598 -0.29538399
5.5955601 0.76152098 -0.098571204
5.6066599 0.75406402 0.098745704
5.5924902 0.74917698 0.49364999
5.58604 0.74633199 0.69197398
5.5981202 0.74595398 0.89449197
5.5892 0.74377501 1.09601
5.5967398 0.73086298 0.29580301
5.6050801 0.729963 0.49452201
5.5985799 0.72712702 -0.69319302
5.5987301 0.726156 0.89417899
5.6016202 0.72453898 1.0979199
5.6135998 0.72509497 -0.29664001
5.6198401 0.71493399 0.098885298
5.6016598 0.70964003 0.493999
5.6227498 0.71032 0.69587398
5.6169701 0.70859098 -0.69514298
5.6157999 0.70645601 1.1002001
5.6191001 0.70487601 -0.098850399
5.6219001 0.69227803 0.49556801
5.6173902 0.68873698 0.89636999
5.6103201 0.68687302 1.09868
5.6314001 0.672499 0.69636101
5.6334901 0.67075801 0.89855999
5.6444201 0.672059 -0.497311
5.61658 0.66774797 1.09944
5.6282201 0.65519202 0.29695401
5.6423202 0.65583199 0.49696201
5.6377602 0.65131402 0.89887297
5.6325302 0.64971697 1.10211
5.6589699 0.64075798 0.099408902
5.6423802 0.63688397 0.297582
5.64853 0.63657802 0.497311
5.6458902 0.63229197 0.89981103
5.65308 0.63109601 -0.29810601
5.6651502 0.62143803 0.099478699
5.6487398 0.61664402 0.497136
5.6480598 0.61257797 0.89981103
5.66501 0.61441702 -0.49853101
5.6603498 0.612912 1.10669
5.6672802 0.60165697 0.099478699
5.6587801 0.59775901 0.497834
5.6599798 0.59588701 0.69879901
5.6585498 0.59274203 1.10593
5.6823502 0.592228 -0.099722996
5.67731 0.58268899 0.099618301
5.6705899 0.579997 0.29873401
5.6707401 0.57901502 0.498705
5.6738701 0.57733101 0.700261
5.6759501 0.57654399 -0.70050502
5.6889901 0.57686299 -0.500274
5.6645398 0.560404 0.29831499
5.6826401 0.560193 0.49957699
5.6835599 0.55727899 0.904504
5.6742702 0.55436897 1.10822
5.6970701 0.54555398 0.099897601
5.7023201 0.54304397 0.50114602
5.6895299 0.53982502 0.70172399
5.68538 0.538427 0.904504
5.7031498 0.522039 0.70318598
5.7091699 0.52158499 -0.70391703
5.6990199 0.51965803 0.90638101
5.7104998 0.519696 -0.50166798
5.71071 0.51770598 -0.300513
5.7058201 0.51625901 -0.100002
5.7109599 0.50165403 0.70391703
5.7126999 0.49979499 0.90825897
5.7103801 0.49859101 -0.50149399
5.7032399 0.49696401 1.1128
5.72471 0.48072001 -0.70538002
5.7259798 0.47981799 -0.50271398
5.7202401 0.47732899 -0.300827
5.7312899 0.47724101 -0.100386
5.7260499 0.46775001 0.100282
5.74687 0.458343 -0.100631
5.7346902 0.44730401 0.30145499
5.7466898 0.446219 0.50428301
5.7318101 0.442045 -0.70586699
5.73527 0.44231099 0.91107398
5.7509699 0.44251299 -0.504632
5.7452502 0.44106701 1.12005
5.74437 0.43898001 -0.100561
5.7550302 0.43070301 0.100735
5.7402601 0.42556801 0.50358599
5.7490001 0.425208 0.70781702
5.7426901 0.42272499 0.91201299
5.7544599 0.422582 -0.50480598
5.7498598 0.419218 -0.100631
5.7655602 0.40923399 0.302921
5.7495899 0.40709499 0.50428301
5.7663698 0.40524799 -0.70976698
5.7539802 0.40336901 0.91357702
5.7680502 0.40233201 -0.30302501
5.7672501 0.40024999 -0.10091
5.76297 0.38681799 0.50532901
5.7577801 0.38545999 0.70854801
5.7717099 0.38538101 -0.71025503
5.7691498 0.38419801 0.91576701
5.77318 0.38345501 -0.50620103
5.75739 0.38139701 1.12158
5.7765899 0.38064399 -0.101049
5.77525 0.37043399 0.101015
5.7723298 0.36822101 0.30313
5.7841702 0.36796501 0.50707197
5.7821999 0.362771 1.12615
5.79391 0.360461 -0.101329
5.7815499 0.34855101 0.30354899
5.7782798 0.34430501 -0.710742
5.7776699 0.34325701 0.91670603
5.80302 0.34374699 1.12997
5.7939401 0.34219399 -0.30417699
5.7911401 0.34000099 -0.101259
5.7947001 0.32904801 0.30417699
5.7926402 0.32385999 0.91889602
5.7967701 0.32409099 -0.50794399
5.81076 0.31164801 0.101573
5.8023 0.30611899 0.71342301
5.8122602 0.30562499 -0.71464199
5.80162 0.30405 0.92014802
5.8013601 0.30302399 1.12921
5.8188 0.28967801 0.30532801
5.8331199 0.28630599 -0.71707898
5.82513 0.282857 -0.30564201
5.8327699 0.272008 0.101922
5.8197699 0.26936299 0.30532801
5.8334999 0.26898101 0.51090699
5.8201599 0.26632699 0.71537298
5.82728 0.264615 0.92390198
5.8376598 0.265086 -0.51125598
5.81706 0.263134 1.13188
5.8220901 0.262346 -0.30543301
5.8312898 0.26071799 -0.101887
5.8436799 0.25207499 0.102097
5.82866 0.24938899 0.305747
5.84833 0.249209 0.51212698
5.8369198 0.246681 0.71732301
5.8191099 0.244911 -0.71512902
5.8301401 0.24435399 0.92421502
5.8316798 0.24340101 1.13455
5.84093 0.24276599 -0.306375
5.8241701 0.240033 -0.101748
5.8431902 0.22856 0.51160401
5.8575802 0.227072 0.71976
5.83183 0.225058 -0.71659201
5.8368802 0.224233 0.92515397
5.8537202 0.22283299 -0.30700299
5.8621602 0.210858 0.307421
5.8662701 0.206908 0.72073501
5.8524199 0.205394 -0.71902901
5.8450098 0.20309401 1.13684
5.87043 0.202949 -0.30783999
5.8559499 0.19221701 0.102271
5.8645601 0.188398 0.51334703
5.8689399 0.186491 -0.72097898
5.8540702 0.184993 0.92765599
5.8590999 0.183108 -0.307212
5.8596101 0.16674399 0.71976
5.8580298 0.16362999 1.13913
5.8656902 0.162819 -0.30752599
5.8868899 0.16135199 -0.102795
5.8871398 0.152105 0.102795
5.8720298 0.149664 0.30783999
5.88762 0.149033 0.51526499
5.8839698 0.14688499 0.72268498
5.8897099 0.144972 -0.51543897
5.8916302 0.131642 0.102864
5.8754401 0.124101 0.930785
5.8922 0.123424 -0.51561302
5.8943601 0.123469 1.146
5.8966298 0.122487 -0.30909601
5.8998699 0.120494 -0.103004
5.8920598 0.111076 0.102864
5.89849 0.107079 0.51613599
5.8987398 0.106053 0.72439098
5.9005599 0.102996 -0.51631099
5.9010401 0.100944 -0.309306
5.89924 0.088555299 0.309201
5.91078 0.086662203 0.51718199
5.9109998 0.0846017 -0.72585398
5.89117 0.081232801 1.1452399
5.9165602 0.0795203 -0.103283
5.9198599 0.064062297 0.93766803
5.9290199 0.063126497 -0.51875103
5.9110398 0.061903398 1.14905
5.9095802 0.060856599 -0.309724
5.9187999 0.0599185 -0.103318
5.9826498 0.059520699 1.60313
5.9288802 0.050707299 0.103493
5.90769 0.048461001 0.30961999
5.9233499 0.044457 -0.72731602
5.9200501 0.043398999 0.93766803
5.93502 0.0300401 0.103597
5.9298 0.027946601 0.31077099
5.9273 0.0268976 0.51857698
5.9373598 0.024873599 0.72902298
5.94133 0.023850501 -0.72951001
5.93329 0.0227827 -0.51910001
5.94381 0.020748399 -0.31150401
5.9370899 0.0093243597 0.103632
5.9418402 0.00726069 0.31139901
5.9333301 0.0062119602 0.51910001
5.9493198 0.0041549602 0.73048502
5.9379802 0.00207442 0.94048399
5.9472799 0.0020776601 -0.52032
5.9388399 0.00103825 1.15439
5.9538298 -0 -0.31202701
5.9510899 -0.0020773199 -0.103877
5.9430799 -0.0114099 0.103737
5.9518199 -0.0135043 0.31192201
5.9512501 -0.0145417 0.52066803
5.9393702 -0.0165859 0.72926599
5.9651799 -0.0176991 -0.73243499
5.9572201 -0.018715199 -0.521191
5.9486299 -0.0197265 1.1562999
5.9514098 -0.021813201 1.374
5.9590502 -0.022881201 -0.104016
5.96312 -0.035386302 0.52171397
5.9472198 -0.037368 0.730241
5.9611101 -0.038495701 -0.731947
5.9674802 -0.039578401 0.94517702
5.9596801 -0.041607101 -0.312341
5.9689298 -0.0437553 -0.104191
5.9576602 -0.044712599 1.5964
5.9668598 -0.053113401 0.104156
5.9828801 -0.056389 0.52345699
5.97087 -0.0583602 0.73316598
5.9728498 -0.059422102 -0.73341
5.9808502 -0.060545601 -0.523283
5.9797602 -0.0615784 1.16241
5.9647398 -0.064547203 -0.104121
5.9805999 -0.0762024 0.1044
5.9752998 -0.077177897 0.313178
5.9765902 -0.083454303 -0.52293402
5.9742298 -0.085507199 1.3794
5.9724598 -0.086524598 -0.104261
5.9783401 -0.0991337 0.52310902
5.9922099 -0.103548 -0.52432901
5.9889798 -0.104538 1.16432
5.9988298 -0.105757 -0.31443399
5.9921398 -0.106685 -0.10461
5.9742498 -0.10741 1.60105
5.9979 -0.119354 0.52485198
5.98383 -0.121164 0.73487198
5.9944901 -0.12452 1.16546
6.0163698 -0.127075 1.3893
5.9897299 -0.12755901 -0.104575
5.99122 -0.128637 1.60571
5.99615 -0.139213 0.31433001
5.9992199 -0.143475 -0.73682201
6.0132499 -0.14591099 -0.52624601
6.0039401 -0.147782 -0.31474799
6.01124 -0.149011 -0.104959
6.0269599 -0.159927 0.105238
6.00559 -0.161457 0.31485301
6.0268002 -0.16834401 1.17195
6.0152502 -0.172224 1.61244
6.0243702 -0.180904 0.105203
6.0209599 -0.182905 0.31569099
6.0281501 -0.184177 0.527641
6.0258498 -0.186212 0.74023402
6.0219598 -0.188196 0.95424998
6.0300102 -0.188447 -0.52781498
6.0399098 -0.189812 1.17462
6.0244098 -0.19143 1.3915499
6.0339999 -0.192789 -0.105378
6.03369 -0.20226701 0.105378
6.04496 -0.20898201 -0.74267203
6.0370998 -0.20871 0.95675302
6.0313702 -0.21062 1.17309
6.04598 -0.21218701 -0.31705099
6.0373302 -0.212938 -0.105447
6.0274601 -0.213643 1.61607
6.0429802 -0.222642 0.105552
6.0515099 -0.225072 0.31736499
6.0363402 -0.22767299 0.74169701
6.0521698 -0.22932801 -0.74364698
6.0384798 -0.23092 1.17462
6.04669 -0.246031 0.31715599
6.04741 -0.24923301 0.743159
6.0651002 -0.25208199 0.96144599
6.0734901 -0.25349301 -0.53182399
6.0650601 -0.25420099 1.17996
6.0563202 -0.25489399 -0.31767899
6.0493798 -0.25460199 1.39785
6.06249 -0.257274 1.6259
6.0711999 -0.267198 0.106076
6.0700498 -0.27457801 0.962385
6.07585 -0.27696499 1.18225
6.0791302 -0.295192 0.74730301
6.0632701 -0.294422 -0.74535298
6.08465 -0.29865399 1.18416
6.0682101 -0.30103201 1.62797
6.0816798 -0.311277 0.31914499
6.0939798 -0.316172 0.74925297
6.0936899 -0.317224 0.966452
6.0875502 -0.31903499 1.18492
6.0932102 -0.320398 -0.31977299
6.0892 -0.320187 1.40774
6.07302 -0.33634499 -0.74681503
6.1023998 -0.33904099 0.96801698
6.0942998 -0.33965701 1.18645
6.1108599 -0.35341999 0.106844
6.0996099 -0.35811001 0.75022799
6.0539699 -0.356491 -0.74462199
6.11696 -0.36127201 0.97052002
6.12184 -0.36263201 -0.53653097
6.10079 -0.36352199 -0.32029599
6.1149302 -0.36650699 1.64143
6.11198 -0.37703699 0.32092401
6.1307502 -0.38034299 0.53740197
6.0545998 -0.378802 -0.74486601
6.1208301 -0.38723499 -0.107053
6.1251798 -0.38858399 1.64454
6.1321902 -0.397625 0.107262
6.1293898 -0.401741 0.53740197
6.13658 -0.40328801 0.75510299
6.1310902 -0.40615201 -0.53757697
6.1234298 -0.408865 -0.107123
6.1387401 -0.41957399 0.107402
6.1490502 -0.42243499 0.32301801
6.1399498 -0.42288601 0.53844798
6.14294 -0.43063399 1.42169
6.1338801 -0.43215001 1.64764
6.15341 -0.447559 0.75753999
6.1664801 -0.450674 0.97927999
6.15695 -0.453219 1.42529
6.1643 -0.45484099 -0.107891
6.1575999 -0.464073 0.107786
6.1686301 -0.468153 0.541237
6.1557698 -0.469338 0.75802702
6.1707802 -0.47264901 0.98021799
6.1533899 -0.474558 1.42484
6.16153 -0.47734901 1.65592
6.1721601 -0.48901099 0.32448301
6.1659698 -0.49177 0.75949001
6.1735501 -0.496712 -0.324588
6.1689501 -0.49850899 -0.10803
6.19207 -0.51016903 0.108449
6.1870499 -0.513017 0.54315501
6.1811099 -0.51687002 0.982409
6.1807399 -0.51683801 -0.54263198
6.1809902 -0.52011901 1.43204
6.1942401 -0.53212303 0.108519
6.1971302 -0.53564 0.5442
6.2027102 -0.54048598 -0.54472297
6.20575 -0.54293197 -0.32647201
6.2031698 -0.54488897 -0.108694
6.2091198 -0.55851901 0.545421
6.2186499 -0.56375301 -0.54629201
6.2038102 -0.56459099 -0.32647201
6.2063198 -0.56591201 1.43879
6.2151699 -0.56781203 -0.108938
6.1965899 -0.56720501 1.66731
6.2182498 -0.57794398 0.109008
6.2245302 -0.58619899 0.99023002
6.2463999 -0.58825803 -0.54890698
6.2262998 -0.60281497 0.32783201
6.2343898 -0.60908997 -0.54803503
6.2329402 -0.61334199 -0.109322
6.2251601 -0.61367297 1.67611
6.24789 -0.62472397 0.109601
6.2460198 -0.62673903 0.32898399
6.25702 -0.63115197 0.77216399
6.2379699 -0.63142997 0.99304599
6.2512102 -0.63497502 -0.32929799
6.2546401 -0.63752902 -0.109741
6.2604399 -0.65910399 -0.10988
6.26578 -0.674043 0.55134702
6.2525802 -0.67372698 0.77216399
6.2811499 -0.68013299 -0.552742
6.2725601 -0.68031001 -0.330659
6.2511601 -0.681301 1.6849101
6.2650399 -0.69388098 0.330345
6.2679501 -0.69752502 0.77435797
6.2821798 -0.70132899 1.0011801
6.2799501 -0.704409 -0.331182
6.2629499 -0.70250201 1.45498
6.2842498 -0.71711099 0.110404
6.2723799 -0.71797401 0.33086801
6.2831001 -0.722534 0.77655101
6.28759 -0.72749799 1.23034
6.2680802 -0.72635001 1.45678
6.2927999 -0.73032802 -0.110578
6.2934999 -0.74154299 0.110613
6.2936401 -0.74267298 0.33212399
6.3052101 -0.75073498 -0.55553102
6.2986498 -0.75106901 1.2330101
6.2941799 -0.75276399 -0.110648
6.2969599 -0.76313102 0.110718
6.29531 -0.766276 0.55483299
6.31534 -0.77095097 0.781183
6.31567 -0.77210999 1.00775
6.3039198 -0.77290797 1.23453
6.3055401 -0.77422303 1.46668
6.2966399 -0.77536201 1.6999201
6.3243699 -0.79110402 0.55762202
6.3167701 -0.79687399 1.23759
6.3266001 -0.800358 -0.111311
6.3073101 -0.79903603 1.70355
6.3291702 -0.81190801 0.111381
6.3231502 -0.81338 0.334113
6.3157101 -0.81578398 0.781914
6.3334899 -0.82032901 1.01151
6.3274298 -0.82178998 1.24026
6.3259702 -0.82272297 -0.33432201
6.3459702 -0.837717 0.11173
6.3281898 -0.83649403 0.33453101
6.33815 -0.84006101 0.55936599
6.3305898 -0.84243202 1.01151
6.35534 -0.84685397 -0.56093401
6.3365698 -0.84773099 -0.111591
6.3450499 -0.86352301 0.56023699
6.35116 -0.865484 0.78703201
6.3464198 -0.86822301 -0.56041098
