x,y,z,intensity
-5.7979,1.35348,0.942987,13
-4.20835,0.982411,-0.378082,33
-5.73532,1.33993,1.14485,12
-4.15022,0.970368,-0.22337,29
-3.70389,0.866694,0.878209,12
-4.10237,0.960691,-0.0735444,13
-5.54674,1.29995,1.52651,16
-4.00744,0.945101,0.071869,9
-4.47794,1.05689,-1.06222,5
-6.05485,1.43019,0.326053,17
-4.41939,1.04389,-0.882683,20
-5.96809,1.4108,0.536531,9
-4.3502,1.02915,-0.708022,27
-5.89166,1.3949,0.743403,21
-4.29204,1.01697,-0.541587,34
-3.80187,0.901526,0.618855,11
-4.22234,1.00123,-0.37965,31
-5.74016,1.36221,1.14676,5
-4.15069,0.985773,-0.223579,30
-5.65933,1.34511,1.34296,9
-4.34412,1.03331,-0.0779424,7
-3.629,0.863881,0.999559,13
-4.00411,0.959085,0.071869,8
-4.47044,1.07161,-1.06132,4
-3.97365,0.953255,0.214159,9
-4.40427,1.05656,-0.880393,20
-5.98444,1.43674,0.538448,16
-4.3485,1.04479,-0.708335,25
-5.88289,1.41453,0.742916,10
-4.29425,1.03334,-0.542319,33
-5.8152,1.4004,0.947367,11
-4.22269,1.0169,-0.379999,32
-5.71438,1.37718,1.14256,12
-4.14334,0.999318,-0.22337,30
-3.70912,0.895274,0.880908,11
-4.10917,0.992596,-0.0737888,14
-5.54879,1.34137,1.52962,19
-4.02794,0.979673,0.0723577,4
-4.47235,1.08859,-1.06267,3
-6.0583,1.47573,0.326786,10
-4.41581,1.07564,-0.883446,19
-5.9852,1.45903,0.538971,9
-4.35251,1.06183,-0.709587,25
-5.87985,1.43553,0.743159,15
-4.28676,1.04738,-0.541831,31
-3.80316,0.929923,0.620106,10
-4.22299,1.03258,-0.380348,32
-3.74915,0.91741,0.750261,8
-4.13595,1.01283,-0.223161,32
-5.65359,1.38552,1.34386,10
-4.3368,1.06361,-0.0779424,7
-5.57597,1.36856,1.53842,12
-4.02873,0.993279,0.0724275,8
-4.47837,1.10497,-1.06492,3
-3.94802,0.974112,0.213112,10
-4.41051,1.08904,-0.883064,15
-5.97672,1.47687,0.538622,13
-4.3549,1.07692,-0.710525,21
-5.87531,1.45399,0.743159,10
-4.27767,1.05941,-0.5411,34
-5.81945,1.44125,0.949557,7
-4.22939,1.04824,-0.381219,33
-3.76149,0.932965,0.753314,8
-4.14826,1.02966,-0.223998,30
-3.70121,0.919384,0.880458,11
-4.18613,1.03984,-0.0752897,10
-5.55689,1.38137,1.53428,24
-4.02347,1.00615,0.0723926,1
-4.46144,1.1165,-1.06177,2
-3.9601,0.991769,0.213949,6
-4.40668,1.10443,-0.883064,17
-5.97346,1.49821,0.538797,9
-4.35705,1.0928,-0.711464,23
-5.88778,1.47782,0.745353,14
-4.29146,1.07794,-0.543294,31
-3.80282,0.955908,0.621045,8
-4.21605,1.06056,-0.380348,31
-3.75837,0.945433,0.753314,11
-4.14675,1.0439,-0.224103,32
-3.7057,0.933557,0.882258,9
-4.22319,1.06471,-0.0760227,5
-5.56702,1.40454,1.53842,13
-4.02187,1.02068,0.0724275,8
-4.4783,1.13734,-1.06672,1
-3.96048,1.00657,0.214159,9
-4.4068,1.12,-0.883827,12
-5.96653,1.51752,0.538622,13
-4.3513,1.10751,-0.711151,19
-3.86081,0.983389,0.489184,10
-4.29921,1.09586,-0.544756,31
-3.7918,0.967224,0.619793,8
-4.21637,1.07552,-0.380696,31
-5.7372,1.46453,1.15096,4
-4.1547,1.06134,-0.224731,32
-3.70241,0.946487,0.882258,9
-4.34537,1.11166,-0.0782915,7
-5.54898,1.42061,1.5348,23
-4.03184,1.0382,0.0726718,1
-4.48373,1.1554,-1.06897,2
-3.96468,1.02238,0.214577,10
-4.43328,1.14322,-0.889933,12
-3.90275,1.00714,0.352632,7
-4.35314,1.12418,-0.71209,19
-5.87348,1.51789,0.744866,10
-4.2896,1.10937,-0.544025,28
-5.82699,1.50805,0.953312,8
-4.22223,1.09273,-0.381568,35
-3.74598,0.970171,0.752169,12
-4.14903,1.07533,-0.224626,30
-3.70475,0.960872,0.883608,11
-4.11114,1.06704,-0.0741378,11
-5.5739,1.44774,1.54308,9
-4.01659,1.04924,0.0724624,4
-4.50795,1.17844,-1.07572,0
-3.95722,1.03521,0.214368,4
-4.42926,1.15869,-0.889933,12
-5.98855,1.56772,0.541586,10
-4.35493,1.14087,-0.713028,19
-3.84041,1.0068,0.487477,12
-4.27994,1.12282,-0.543294,31
-3.80407,0.998687,0.622922,7
-4.21839,1.10746,-0.381568,33
-5.73443,1.50654,1.15249,4
-4.13173,1.08625,-0.223893,34
-3.69572,0.972311,0.882258,9
-4.33364,1.14095,-0.0782217,7
-5.56134,1.46522,1.54101,21
-4.03416,1.06888,0.0728463,4
-3.95552,1.04952,0.214473,13
-4.42898,1.17515,-0.890696,10
-3.91488,1.03947,0.354375,12
-4.3681,1.16063,-0.715844,14
-3.84646,1.02275,0.488696,10
-4.28367,1.1398,-0.544268,31
-5.8106,1.54717,0.952373,11
-4.22413,1.12474,-0.382439,36
-3.75429,1.00034,0.755222,12
-4.14914,1.10633,-0.225045,30
-3.69042,0.984704,0.881808,11
-4.11711,1.09933,-0.0743822,14
-5.57113,1.48861,1.54515,6
-4.11731,1.10631,0.0744171,1
-6.083,1.63676,0.330135,4
-4.42675,1.19111,-0.891078,9
-5.97746,1.60949,0.541586,7
-4.36021,1.17484,-0.715218,14
-3.8697,1.0434,0.492108,10
-4.28733,1.15681,-0.545243,30
-3.78556,1.02213,0.621045,8
-4.21633,1.13844,-0.382091,32
-5.74462,1.55217,1.15668,6
-4.1549,1.12341,-0.225568,34
-5.65083,1.52894,1.35151,11
-4.27538,1.15759,-0.0773142,8
-5.55284,1.50451,1.54153,15
-4.00731,1.09177,0.0724973,9
-3.95965,1.08027,0.215101,12
-4.44151,1.21173,-0.894894,9
-3.90753,1.06678,0.354375,10
-4.35036,1.18849,-0.71428,15
-3.86412,1.05638,0.491865,10
-4.28709,1.17282,-0.545731,30
-5.81108,1.59082,0.95425,13
-4.21809,1.15473,-0.382614,33
-3.7529,1.02808,0.756367,17
-4.1548,1.13896,-0.225777,27
-3.69661,1.01405,0.884957,9
-4.14405,1.13757,-0.0750104,10
-5.56246,1.52798,1.54567,6
-4.11334,1.13609,0.0744869,2
-6.07912,1.68132,0.330554,6
-4.44482,1.22932,-0.896421,6
-3.91146,1.08254,0.355072,6
-4.36522,1.20894,-0.717409,14
-5.892,1.63289,0.750715,10
-4.29445,1.19096,-0.547193,30
-3.80688,1.05646,0.625738,12
-4.22172,1.17158,-0.383311,35
-5.73743,1.59329,1.15745,6
-4.15273,1.15399,-0.225882,30
-5.6663,1.57566,1.3578,12
-4.15546,1.15632,-0.0752897,10
-5.55523,1.54687,1.54515,13
-4.01884,1.12511,0.0728463,9
-6.06937,1.70145,0.330345,14
-4.4405,1.24482,-0.896421,6
-3.91149,1.09726,0.355421,7
-4.36098,1.22417,-0.717409,13
-3.83945,1.0785,0.489671,12
-4.2788,1.20272,-0.545731,31
-5.81125,1.63456,0.956128,15
-4.22719,1.189,-0.384182,32
-3.74563,1.05426,0.756367,15
-4.13906,1.16578,-0.225359,32
-3.69694,1.04195,0.886757,9
-4.1745,1.17733,-0.0757085,10
-5.56467,1.57045,1.54929,8
-4.0399,1.14622,0.0733001,1
-6.06754,1.72266,0.330554,8
-4.43235,1.25924,-0.895657,4
-3.91722,1.11363,0.356293,12
-4.36618,1.24209,-0.718973,13
-5.88619,1.67561,0.751446,12
-4.2803,1.21928,-0.546462,30
-3.7939,1.08072,0.624799,8
-4.22876,1.20539,-0.384705,35
-5.74694,1.63923,1.16165,8
-4.15993,1.18734,-0.226719,30
-5.64392,1.61197,1.35511,16
-4.13019,1.17963,-0.0749755,12
-5.58172,1.59526,1.5555,9
-4.01494,1.15354,0.0729162,5
-6.06341,1.74438,0.330659,18
-4.42416,1.27362,-0.894894,4
-5.97335,1.72073,0.543852,6
-4.37342,1.25984,-0.72085,13
-3.85873,1.11231,0.493083,13
-4.29531,1.23896,-0.5489,28
-5.79999,1.67408,0.956128,13
-4.21687,1.21794,-0.384008,32
-3.75723,1.08518,0.760183,17
-4.15597,1.20113,-0.226719,30
-5.65913,1.63663,1.36005,6
-4.14333,1.19905,-0.0752897,10
-5.56499,1.61151,1.5524,9
-4.01857,1.16978,0.0730558,2
-3.98066,1.16026,0.217299,7
-4.44253,1.29488,-0.899474,6
-3.89999,1.13748,0.355421,10
-4.36331,1.27344,-0.719912,13
-5.90132,1.72343,0.754859,12
-4.28715,1.25284,-0.548412,30
-3.80333,1.11217,0.627615,11
-4.22598,1.23656,-0.385228,30
-5.74318,1.68051,1.16317,9
-4.16709,1.22012,-0.227557,30
-5.659,1.65802,1.3614,16
-4.17366,1.22363,-0.075918,8
-3.63701,1.06698,1.01561,15
-4.01254,1.18324,0.0730209,2
-4.49511,1.32639,-1.08201,0
-6.06641,1.79119,0.331496,18
-4.43775,1.31115,-0.899474,7
-5.97266,1.76578,0.544898,6
-4.35483,1.2883,-0.719286,13
-3.85467,1.14034,0.493571,15
-4.29607,1.27174,-0.550118,25
-5.8052,1.71958,0.958943,15
-4.22164,1.25131,-0.385228,31
-3.74748,1.11148,0.759801,16
-4.15493,1.23311,-0.227138,30
-5.64915,1.67764,1.3605,6
-4.12144,1.22396,-0.0750453,14
-5.56286,1.65308,1.55498,8
-4.02925,1.20424,0.0734048,8
-4.47528,1.33839,-1.07842,0
-3.96673,1.1863,0.216985,12
-4.43691,1.32776,-0.900237,9
-5.98745,1.7929,0.546815,12
-4.37301,1.3103,-0.72304,15
-5.88123,1.76334,0.753884,12
-4.28378,1.28519,-0.549143,27
-3.81061,1.14324,0.630118,11
-4.24014,1.27291,-0.38732,31
-5.73853,1.72383,1.1647,11
-4.14678,1.24646,-0.226929,30
-5.65072,1.6996,1.3623,16
-4.188,1.25965,-0.0763368,7
-3.63688,1.09458,1.01768,18
-4.02524,1.21759,0.0734048,4
-4.4932,1.36,-1.08381,0
-6.05949,1.83524,0.33181,8
-4.42097,1.33982,-0.897947,9
-5.97734,1.81264,0.546467,6
-4.36864,1.3248,-0.72304,15
-3.85802,1.17068,0.495033,15
-4.28139,1.29997,-0.549387,28
-5.80251,1.76294,0.960508,12
-4.22805,1.28538,-0.386623,31
-3.76237,1.14381,0.764381,18
-4.15791,1.26485,-0.227766,30
-5.63573,1.71549,1.36005,8
-4.16062,1.26727,-0.075918,12
-5.57336,1.69863,1.5612,9
-4.03626,1.23632,0.0736841,8
-4.48843,1.37568,-1.08381,1
-3.97362,1.21865,0.217822,13
-4.41838,1.35505,-0.898329,10
-5.98082,1.83537,0.547338,15
-4.36965,1.34178,-0.723979,21
-5.90135,1.81324,0.758027,10
-4.29201,1.31957,-0.551337,28
-3.79498,1.16749,0.628867,11
-4.22376,1.2994,-0.386623,31
-5.7398,1.76689,1.16737,12
-4.16683,1.28348,-0.228499,32
-5.64833,1.74089,1.36455,17
-4.14089,1.27707,-0.0756387,10
-3.64207,1.12393,1.0213,15
-4.02046,1.24685,0.0734746,8
-4.49663,1.39538,-1.08696,1
-6.07323,1.88579,0.333275,6
-4.42863,1.37512,-0.901382,12
-5.98009,1.85801,0.547861,7
-4.35928,1.35526,-0.72304,21
-3.86112,1.20113,0.496496,13
-4.29685,1.3375,-0.552556,31
-5.80137,1.80693,0.962385,10
-4.23062,1.31769,-0.387669,32
-3.75242,1.16947,0.763999,19
-4.17376,1.30158,-0.229127,37
-5.66082,1.7664,1.36905,8
-4.32538,1.35052,-0.0790943,7
-5.55583,1.73577,1.55964,8
-4.02371,1.26327,0.0736143,4
-4.49545,1.41224,-1.08786,1
-3.96692,1.24696,0.217927,10
-4.4238,1.39057,-0.901382,15
-5.98307,1.88186,0.548733,15
-4.3583,1.37166,-0.723666,21
-5.88855,1.85439,0.758027,10
-4.29216,1.35249,-0.552556,31
-3.81312,1.20227,0.633247,12
-4.22219,1.33125,-0.38732,31
-5.72358,1.80574,1.16661,12
-4.15586,1.31193,-0.228394,32
-5.65648,1.78674,1.3695,16
-4.12424,1.30353,-0.0754991,14
-3.64334,1.15224,1.02389,14
-4.02309,1.27852,0.0736841,9
-4.4812,1.42497,-1.08561,1
-3.94732,1.25596,0.21709,4
-4.4395,1.41256,-0.90558,18
-3.909,1.24451,0.358907,7
-4.36289,1.38986,-0.72523,25
-5.88772,1.87674,0.758759,12
-4.29308,1.36927,-0.553287,28
-5.80932,1.85399,0.965827,8
-4.2346,1.35143,-0.388889,33
-3.75726,1.19982,0.766671,18
-4.16077,1.32947,-0.228917,34
-5.64835,1.80588,1.36905,8
-4.34441,1.38982,-0.0796179,5
-5.5767,1.78512,1.56896,9
-4.01479,1.29133,0.0736143,4
-4.48919,1.44478,-1.08876,2
-3.95834,1.27393,0.217927,7
-4.42519,1.42504,-0.903671,18
-5.98875,1.9297,0.550476,12
-4.37494,1.41054,-0.728046,27
-5.89624,1.90216,0.760709,8
-4.29206,1.38547,-0.553774,28
-3.81236,1.23063,0.634498,11
-4.23555,1.36804,-0.389412,32
-5.73885,1.8547,1.17233,12
-4.1637,1.34644,-0.229336,34
-5.65314,1.82918,1.37175,15
-4.13811,1.33896,-0.075918,10
-5.56156,1.80062,1.56637,8
-4.0162,1.30649,0.073719,8
-4.50476,1.46629,-1.09371,1
-3.96527,1.29145,0.218555,9
-4.42393,1.44169,-0.904435,19
-3.91348,1.2761,0.360128,12
-4.37775,1.42749,-0.729298,27
-5.905,1.92663,0.762658,12
-4.28744,1.3997,-0.553774,30
-5.81534,1.89962,0.968955,6
-4.22127,1.37972,-0.38854,35
-3.76393,1.23024,0.769724,18
-4.16681,1.36273,-0.229755,35
-5.64519,1.84731,1.3713,6
-4.26644,1.39696,-0.0783613,5
-5.55708,1.82063,1.56689,8
-4.01541,1.32175,0.0737888,8
-4.49776,1.4814,-1.09326,2
-3.97614,1.3096,0.219392,7
-4.43777,1.4625,-0.908251,25
-5.9698,1.96854,0.549953,9
-4.36336,1.43966,-0.727733,28
-5.90201,1.94847,0.763146,10
-4.30326,1.4215,-0.556455,31
-5.82402,1.92385,0.971458,7
-4.23559,1.39997,-0.390283,43
-5.73355,1.89619,1.17386,9
-4.1753,1.38166,-0.230488,39
-5.66091,1.87436,1.3767,11
-4.33202,1.43436,-0.0796528,7
-5.55467,1.84026,1.56793,8
-4.02808,1.34074,0.0741029,1
-4.48543,1.49384,-1.09146,2
-3.96776,1.3222,0.219183,9
-4.44195,1.48108,-0.910159,22
-3.91415,1.30586,0.360999,13
-4.36793,1.45725,-0.729298,27
-5.89551,1.96804,0.763146,12
-4.29852,1.43576,-0.556455,30
-3.81635,1.27545,0.637314,8
-4.23635,1.41664,-0.390806,38
-3.75175,1.25459,0.76896,18
-4.17069,1.39549,-0.230488,37
-5.65651,1.89374,1.37715,5
-4.14116,1.38722,-0.0762321,12
-5.5647,1.86516,1.57258,5
-4.03475,1.35863,0.0743124,12
-4.48572,1.51136,-1.09281,2
-3.96312,1.33605,0.219183,10
-4.44259,1.49769,-0.911304,25
-5.99024,2.0206,0.55309,6
-4.37592,1.47691,-0.731488,29
-3.85176,1.30075,0.499177,9
-4.29537,1.45139,-0.556699,34
-5.83664,1.97332,0.975838,7
-4.2354,1.43196,-0.391155,40
-5.71865,1.93454,1.17348,6
-4.16769,1.41068,-0.230592,40
-5.6554,1.91535,1.3785,11
-4.34652,1.47291,-0.0801065,7
-5.55816,1.88458,1.57258,7
-4.12841,1.40623,0.0761274,1
-4.49887,1.53329,-1.09731,2
-6.08698,2.07573,0.337044,6
-4.43362,1.51192,-0.910541,30
-3.9146,1.33569,0.361871,9
-4.38195,1.49601,-0.733365,29
-5.90605,2.01749,0.766314,10
-4.29591,1.46831,-0.55743,32
-3.80922,1.3027,0.637627,11
-4.24169,1.4506,-0.392201,36
-3.7559,1.2852,0.771632,12
-4.16841,1.42716,-0.230906,39
-5.65237,1.93634,1.3794,6
-4.16164,1.42647,-0.0767906,12
-3.65474,1.25343,1.03528,11
-4.03084,1.38871,0.0744171,8
-4.48796,1.54708,-1.09596,1
-3.96715,1.36755,0.219916,12
-4.44316,1.53251,-0.913593,24
-3.90426,1.34739,0.361348,6
-4.38604,1.51452,-0.734929,32
-3.86323,1.33474,0.501858,10
-4.30577,1.48848,-0.55938,34
-5.82307,2.01301,0.975838,7
-4.23284,1.4641,-0.391852,38
-5.74211,1.98726,1.18111,6
-4.1785,1.44693,-0.231744,34
-3.70663,1.28426,0.905653,12
-4.23058,1.4658,-0.0781519,5
-5.54885,1.92363,1.57362,9
-4.03376,1.4047,0.0745567,2
-4.50305,1.56901,-1.10091,2
-6.0878,2.12238,0.337881,6
-4.4415,1.5493,-0.914357,21
-5.97628,2.08584,0.553788,7
-4.36794,1.5245,-0.732739,30
-3.84566,1.34297,0.500152,7
-4.30643,1.50471,-0.560112,37
-3.80773,1.33121,0.638878,11
-4.23898,1.48281,-0.392898,38
-3.7656,1.31722,0.775448,9
-4.16991,1.45946,-0.231534,37
-3.69868,1.29526,0.904753,10
-4.33867,1.52023,-0.0802462,7
-5.56763,1.95194,1.58087,6
-4.04958,1.42608,0.0749406,1
-4.49571,1.58407,-1.10046,2
-6.09165,2.1476,0.338509,12
-4.44744,1.56794,-0.916646,25
-3.92131,1.38322,0.363788,10
-4.37004,1.54236,-0.733991,28
-3.85967,1.36299,0.502589,10
-4.30677,1.52172,-0.560843,34
-3.82913,1.35371,0.643259,5
-4.23968,1.49885,-0.393421,32
-3.75357,1.32773,0.773921,10
-4.16102,1.47268,-0.231325,37
-3.7125,1.31467,0.909252,10
-4.13166,1.46391,-0.0765114,12
-5.54803,1.96684,1.57724,12
-4.02951,1.43484,0.0746614,11
-4.47546,1.59452,-1.09686,1
-3.96202,1.41237,0.220439,4
-4.44934,1.58609,-0.918173,25
-3.92021,1.39824,0.364137,7
-4.36649,1.55827,-0.734303,27
-3.84928,1.37445,0.501858,9
-4.30517,1.53808,-0.56133,35
-5.82586,2.08252,0.979906,11
-4.23817,1.51498,-0.39377,35
-5.73983,2.0529,1.18492,5
-4.16714,1.49123,-0.231953,40
-3.69872,1.32433,0.907003,12
-4.31101,1.54441,-0.079932,7
-5.59569,2.00575,1.59277,6
-4.0621,1.46245,0.0753595,1
-4.51021,1.62466,-1.10676,1
-6.069,2.18737,0.33809,14
-4.44747,1.60294,-0.918936,24
-3.93405,1.41867,0.36588,7
-4.38518,1.58222,-0.738371,29
-3.84819,1.38923,0.502346,4
-4.30164,1.55377,-0.561574,37
-3.8103,1.37705,0.641694,8
-4.24785,1.53518,-0.395164,36
-3.76637,1.36192,0.778501,12
-4.16567,1.50713,-0.232162,37
-3.7069,1.34188,0.910152,9
-4.14202,1.50021,-0.0768953,10
-5.5596,2.01474,1.58449,16
-4.04382,1.47183,0.0751152,8
-4.52099,1.6464,-1.11081,1
-3.9727,1.44751,0.22159,12
-4.43816,1.61711,-0.918173,25
-3.91784,1.4283,0.364834,10
-4.39076,1.60158,-0.740248,29
-3.86197,1.40946,0.504783,12
-4.30738,1.57287,-0.563036,32
-5.8186,2.12585,0.981157,11
-4.23872,1.54864,-0.394816,33
-5.76224,2.1064,1.19256,5
-4.18664,1.53126,-0.233628,35
-5.64571,2.06603,1.38795,13
-4.17056,1.52703,-0.0775236,8
-5.57974,2.0441,1.59225,5
-4.05555,1.49215,0.0754293,1
-4.51521,1.66217,-1.11081,1
-6.07982,2.23935,0.339556,8
-4.43801,1.63463,-0.919318,27
-5.98608,2.20601,0.558145,6
-4.38329,1.61621,-0.739935,32
-5.89262,2.1739,0.771189,7
-4.31489,1.5927,-0.564743,34
-3.81171,1.40772,0.643571,9
-4.22768,1.56135,-0.394293,32
-5.73275,2.11833,1.18798,12
-4.18127,1.54587,-0.233628,37
-3.70658,1.37111,0.912401,9
-4.22146,1.5624,-0.0785707,11
-5.54539,2.0535,1.58449,15
-4.0878,1.52024,0.0761274,1
-4.49112,1.67112,-1.10631,2
-3.97373,1.4794,0.222218,12
-4.44516,1.65491,-0.921989,25
-3.92271,1.46118,0.366228,10
-4.37948,1.63219,-0.740248,31
-5.885,2.19446,0.771189,12
-4.31303,1.60914,-0.56523,34
-5.82212,2.17333,0.984286,12
-4.23901,1.58237,-0.395861,35
-5.74188,2.14452,1.19141,4
-4.16462,1.55626,-0.233,35
-5.65487,2.11427,1.3938,16
-4.14481,1.55051,-0.0772443,10
-3.6475,1.36519,1.04356,12
-4.03006,1.5148,0.0751501,11
-4.51444,1.69777,-1.11351,1
-6.08313,2.28771,0.340602,8
-4.45406,1.67594,-0.925042,24
-5.99664,2.25757,0.560586,6
-4.37375,1.64747,-0.740248,29
-5.88659,2.21849,0.772408,7
-4.30739,1.62419,-0.56523,34
-3.81498,1.43852,0.645762,12
-4.25583,1.6056,-0.397953,35
-5.72701,2.16177,1.18988,16
-4.17037,1.57502,-0.233628,35
-3.70785,1.40108,0.915101,7
-4.18454,1.58121,-0.0780821,10
-5.56201,2.10282,1.59329,15
-4.05119,1.53809,0.0756387,1
-4.51061,1.71342,-1.11396,1
-6.0695,2.3068,0.340288,16
-4.43717,1.68729,-0.922752,25
-6.00176,2.28345,0.561806,9
-4.38673,1.66899,-0.743377,29
-5.89404,2.24365,0.774358,14
-4.3094,1.64129,-0.566205,35
-5.82381,2.21924,0.987102,8
-4.25206,1.62115,-0.398127,37
-5.75283,2.19334,1.19675,8
-4.17633,1.59311,-0.234256,35
-5.64035,2.15271,1.3938,16
-4.15658,1.58724,-0.0776632,10
-3.63812,1.38999,1.04356,13
-4.04766,1.55294,0.0756736,6
-4.51916,1.73474,-1.11756,1
-3.98998,1.53241,0.223998,9
-4.43705,1.70411,-0.923897,28
-5.98858,2.3012,0.561283,6
-4.37903,1.68358,-0.743064,30
-3.85557,1.4831,0.50722,9
-4.31661,1.66131,-0.567911,30
-3.81222,1.46795,0.647013,12
-4.2355,1.63095,-0.397082,30
-5.73781,2.21058,1.19523,17
-4.18192,1.61199,-0.234884,34
-5.66371,2.18431,1.40145,8
-4.15847,1.60462,-0.0778028,10
-5.5562,2.14507,1.59588,12
-4.04408,1.56778,0.0757085,4
-4.54214,1.76178,-1.12476,1
-6.07001,2.35562,0.34123,10
-4.44571,1.72527,-0.92695,22
-5.98237,2.32281,0.561457,10
-4.37497,1.69957,-0.743377,27
-5.89304,2.29049,0.776308,14
-4.31448,1.67781,-0.568399,32
-5.81185,2.26127,0.987727,7
-4.24092,1.65006,-0.398127,31
-5.75201,2.23915,1.19981,9
-4.18371,1.62948,-0.235302,34
-5.64698,2.20053,1.3992,16
-4.15285,1.61913,-0.0778028,10
-3.64273,1.42097,1.0477,14
-4.0423,1.58335,0.0757783,2
-4.52689,1.77407,-1.12251,0
-4.0015,1.56897,0.225254,10
-4.45246,1.74579,-0.929621,19
-3.91913,1.53747,0.36832,12
-4.38556,1.72133,-0.746193,27
-3.8599,1.51579,0.50917,12
-4.32338,1.69867,-0.570349,30
-5.82599,2.29022,0.991482,15
-4.24441,1.66849,-0.398999,35
-5.72589,2.25203,1.19599,13
-4.17428,1.64261,-0.235093,32
-3.72082,1.46492,0.923199,13
-4.2402,1.67026,-0.0795481,7
-5.55547,2.18948,1.60002,8
-4.03861,1.59818,0.0758133,9
-4.53517,1.7956,-1.1261,0
-6.0757,2.40677,0.342487,10
-4.45181,1.7635,-0.930766,22
-5.97897,2.36966,0.562677,6
-4.38503,1.73881,-0.747131,28
-5.88428,2.33451,0.777283,10
-4.30267,1.70789,-0.568399,30
-5.81796,2.31054,0.991482,7
-4.24967,1.68771,-0.400045,32
-3.7603,1.49413,0.786515,15
-4.1611,1.65422,-0.234674,32
-5.63872,2.24278,1.401,12
-4.15631,1.65399,-0.0780821,10
-3.64887,1.4528,1.05236,16
-4.05715,1.62192,0.076267,4
-4.53249,1.81287,-1.127,0
-6.06768,2.4269,0.342487,12
-4.44745,1.77975,-0.931148,25
-5.98731,2.39718,0.564246,10
-4.3881,1.75778,-0.748695,27
-5.90558,2.36685,0.781183,14
-4.31326,1.72955,-0.570592,32
-5.8066,2.32835,0.990856,16
-4.25485,1.70699,-0.401091,33
-5.74282,2.30511,1.20286,8
-4.16642,1.6732,-0.235302,32
-3.70689,1.48941,0.922299,15
-4.16564,1.67373,-0.0783613,10
-5.57091,2.23949,1.60882,8
-4.04248,1.63162,0.0760925,5
-4.52284,1.82643,-1.1261,0
-3.98513,1.6101,0.225254,9
-4.44667,1.79747,-0.932293,22
-5.9826,2.41955,0.564595,9
-4.39324,1.77677,-0.750573,27
-5.8977,2.38642,0.781183,10
-4.32038,1.74906,-0.572298,30
-3.80276,1.54028,0.649829,8
-4.24332,1.71959,-0.400568,32
-5.75152,2.33078,1.20629,12
-4.17566,1.69301,-0.23614,35
-5.65402,2.29356,1.40864,8
-4.27651,1.73564,-0.0805603,5
-3.64427,1.47978,1.05391,14
-4.03305,1.64422,0.0760227,5
-4.54892,1.85545,-1.1342,0
-6.08388,2.48278,0.344371,7
-4.45705,1.81889,-0.935727,25
-5.98561,2.4439,0.565641,15
-4.38518,1.79135,-0.75026,28
-5.9022,2.41225,0.782889,15
-4.31425,1.76413,-0.572298,32
-5.81397,2.37856,0.994923,11
-4.24313,1.73591,-0.401091,33
-5.73245,2.34638,1.204,6
-4.17896,1.71136,-0.236663,36
-3.71109,1.52052,0.925899,13
-4.1335,1.69443,-0.0779774,14
-5.55693,2.27906,1.60934,8
-4.03469,1.66133,0.0761623,5
-4.54602,1.8728,-1.1351,0
-3.99595,1.64701,0.22651,9
-4.45793,1.83743,-0.937254,25
-3.91777,1.61559,0.370761,6
-4.38073,1.80739,-0.750573,27
-5.90475,2.43738,0.784351,10
-4.31357,1.78145,-0.57303,34
-3.8193,1.5781,0.654522,11
-4.24993,1.75604,-0.402311,38
-5.72785,2.36787,1.20477,13
-4.16927,1.72441,-0.236454,36
-5.66128,2.34266,1.41449,6
-4.21625,1.74556,-0.0796528,5
-3.64813,1.5111,1.05805,13
-4.04363,1.68155,0.0764415,4
-4.52866,1.88417,-1.1324,0
-6.07377,2.52827,0.344789,5
-4.46237,1.8575,-0.939544,25
-5.98312,2.49176,0.567035,9
-4.3981,1.83255,-0.75464,28
-5.89804,2.45874,0.784595,12
-4.30732,1.7965,-0.57303,32
-5.81727,2.42745,0.998365,7
-4.25481,1.77546,-0.403357,37
-5.73586,2.39466,1.2082,8
-4.15954,1.73742,-0.236245,35
-3.70578,1.54864,0.927248,10
-4.28208,1.79036,-0.0810141,5
-5.57118,2.33047,1.61814,5
-4.03774,1.69565,0.0764415,8
-4.5508,1.91204,-1.1396,0
-6.07964,2.55565,0.345627,7
-4.45948,1.87459,-0.940307,25
-3.93211,1.65371,0.373201,10
-4.39531,1.84943,-0.755266,28
-3.88054,1.63362,0.51697,12
-4.31383,1.81691,-0.574736,30
-3.81001,1.60549,0.654835,8
-4.2596,1.79495,-0.404403,38
-5.74013,2.42001,1.21087,12
-4.17553,1.76124,-0.237501,38
-3.69317,1.55854,0.925449,6
-4.12659,1.74229,-0.0781868,12
-3.66062,1.54631,1.06478,11
-4.04284,1.71442,0.076651,5
-4.5441,1.92792,-1.1396,0
-3.98216,1.69033,0.226719,9
-4.46013,1.89321,-0.941833,25
-5.97841,2.53892,0.568255,6
-4.40519,1.87171,-0.758081,30
-5.90448,2.50995,0.787763,7
-4.31477,1.83507,-0.575711,32
-3.80438,1.61878,0.654835,9
-4.24598,1.80669,-0.403705,37
-3.7645,1.60259,0.795292,10
-4.18039,1.7805,-0.238129,38
-3.71639,1.58364,0.932647,9
-4.2658,1.81864,-0.0809443,3
-5.56721,2.37462,1.62176,6
-4.04602,1.73246,0.0768255,4
-4.566,1.95605,-1.1468,0
-3.99827,1.71366,0.227975,4
-4.46432,1.91341,-0.944123,25
-5.97867,2.56369,0.569127,12
-4.39319,1.88474,-0.757143,36
-3.88546,1.66772,0.519163,9
-4.31746,1.85403,-0.57693,34
-5.83146,2.50539,1.00525,7
-4.24514,1.82386,-0.404228,35
-5.73392,2.46467,1.21316,8
-4.18515,1.79981,-0.238757,36
-3.70368,1.59352,0.930847,10
-4.29065,1.84696,-0.0815376,5
-3.64442,1.56953,1.06323,10
-4.04179,1.74736,0.0768604,9
-4.59134,1.9859,-1.1549,0
-3.99593,1.72919,0.228185,8
-4.46483,1.9321,-0.945649,30
-3.92006,1.69717,0.373724,9
-4.38839,1.90085,-0.757456,29
-3.86868,1.67653,0.517701,9
-4.32735,1.8762,-0.579123,30
-5.82993,2.52888,1.0065,8
-4.25154,1.84421,-0.405449,40
-5.72888,2.48623,1.21393,5
-4.17885,1.81441,-0.238757,40
-3.69988,1.60722,0.931297,7
-4.13929,1.79896,-0.0787802,11
-5.56821,2.42113,1.62694,5
-4.04666,1.76626,0.0770698,2
-4.57723,1.99879,-1.1531,0
-3.98255,1.73993,0.227766,9
-4.46705,1.9516,-0.947558,28
-6.00079,2.62293,0.572962,7
-4.3944,1.92169,-0.759646,28
-3.85735,1.68764,0.51697,7
-4.31532,1.88891,-0.578392,34
-3.82341,1.67438,0.661092,9
-4.2615,1.86624,-0.407017,41
-3.7547,1.64507,0.796818,10
-4.17249,1.82899,-0.238757,35
-5.64845,2.47715,1.42394,9
-4.29596,1.8849,-0.0818867,3
-3.66167,1.60736,1.07151,10
-6.1888,2.72701,0.118048,6
-4.60589,2.03048,-1.1621,0
-3.98041,1.75474,0.227975,8
-4.45841,1.96639,-0.947176,24
-3.93181,1.73496,0.37599,9
-4.39851,1.94181,-0.761523,34
-3.87323,1.71072,0.519895,6
-4.31448,1.90561,-0.579123,37
-5.81981,2.5717,1.00775,8
-4.25861,1.88271,-0.407366,36
-5.7437,2.54046,1.2208,4
-4.18434,1.85162,-0.239803,36
-3.69777,1.63631,0.933547,9
-4.30249,1.9048,-0.082131,3
-5.56574,2.46523,1.63108,6
-4.04551,1.79864,0.0772793,11
-3.98734,1.77361,0.228708,4
-4.45904,1.98436,-0.948702,24
-3.92604,1.74799,0.37599,9
-4.40107,1.9604,-0.763087,38
-3.88204,1.73002,0.521845,10
-4.31721,1.92395,-0.580342,34
-3.81403,1.70051,0.661405,12
-4.25234,1.89682,-0.407366,41
-5.73704,2.5603,1.22118,11
-4.18912,1.87038,-0.240431,38
-5.64258,2.51932,1.42664,9
-4.13183,1.84566,-0.0789896,11
-5.56811,2.48841,1.63418,5
-6.17058,2.76799,0.118048,8
-4.80567,2.15673,-1.21609,0
-3.9793,1.7867,0.228603,11
-4.46139,2.00316,-0.95061,22
-5.99574,2.69333,0.575054,7
-4.39094,1.97337,-0.762462,32
-5.90766,2.65625,0.795319,4
-4.33038,1.94797,-0.583023,37
-5.82379,2.62098,1.01151,8
-4.25329,1.91418,-0.408063,41
-5.72136,2.57608,1.21965,8
-4.18654,1.8859,-0.240641,36
-3.70431,1.66945,0.938046,12
-4.27119,1.92583,-0.081782,3
-5.53826,2.49829,1.62797,10
-6.17181,2.79446,0.118258,8
-4.85137,2.19762,-1.22958,0
-3.98032,1.80388,0.229022,9
-4.49192,2.03574,-0.958624,12
-3.92131,1.77796,0.376687,6
-4.39122,1.99195,-0.763713,29
-3.87017,1.7564,0.521845,10
-4.33078,1.96635,-0.583998,39
-5.82719,2.64701,1.0137,13
-4.26291,1.93643,-0.409632,36
-5.72127,2.6001,1.22156,16
-4.18356,1.90215,-0.24085,40
-5.64082,2.56591,1.43069,8
-4.30813,1.9606,-0.0826197,3
-5.5805,2.54082,1.64298,5
-4.0486,1.85017,0.0776981,9
-6.08451,2.78313,0.350651,5
-6.24336,2.8558,-1.33452,1
-3.92957,1.79827,0.378082,10
-4.47584,2.0492,-0.779669,28
-3.8568,1.7666,0.52087,9
-4.31848,1.97898,-0.583267,34
-5.83767,2.67639,1.01714,8
-4.27243,1.95878,-0.411201,41
-3.75457,1.72215,0.802924,12
-4.18416,1.92008,-0.241269,45
-3.69788,1.69771,0.939396,12
-4.12318,1.89383,-0.079199,11
-5.54877,2.5498,1.63625,13
-6.18483,2.85256,0.118886,8
-3.97488,1.83497,0.229441,11
-6.23335,2.87757,-1.33452,3
-6.007,2.77435,0.578888,4
-4.55115,2.10292,-0.794061,28
-5.88673,2.7213,0.796294,6
-4.32596,2.00071,-0.585217,34
-5.81933,2.6926,1.01557,10
-4.26014,1.97117,-0.410678,40
-5.73683,2.65565,1.22881,12
-4.18831,1.93971,-0.241897,45
-5.62984,2.60851,1.43249,6
-6.29727,2.91909,-0.121155,3
-3.65233,1.69381,1.07876,12
-6.18572,2.87919,0.119095,11
-3.98294,1.85558,0.230278,8
-4.45434,2.0752,-0.95519,3
-6.00089,2.79698,0.579237,7
-4.52588,2.11045,-0.790933,21
-3.87496,1.80775,0.525013,12
-4.41608,2.06113,-0.598379,15
-3.82315,1.7852,0.668288,11
-4.25289,1.98677,-0.410678,37
-3.77803,1.76494,0.810557,16
-4.19599,1.96108,-0.242734,45
-5.64188,2.63805,1.43789,16
-6.29248,2.94359,-0.121259,3
-5.54658,2.59585,1.64091,15
-4.03986,1.89757,0.0779075,9
-6.09479,2.86539,0.352954,5
-4.46803,2.10154,-0.959769,7
-3.92463,1.84679,0.379476,10
-4.6593,2.19349,-0.815649,32
-5.91249,2.78347,0.802388,9
-4.3927,2.06892,-0.596185,12
-5.82719,2.7458,1.02027,8
-4.25854,2.00755,-0.411898,35
-5.73721,2.70584,1.23301,6
-4.19961,1.98156,-0.243362,43
-5.64275,2.6637,1.44059,11
-4.12482,1.94715,-0.0796179,7
-3.6474,1.72256,1.08083,12
-6.17218,2.92681,0.119235,9
-3.99154,1.89361,0.231534,11
-4.46066,2.11713,-0.959769,3
-5.99332,2.84584,0.580457,6
-4.5963,2.18347,-0.80595,9
-5.88791,2.7983,0.800438,13
-6.61583,3.14426,-0.899396,9
-5.82292,2.76866,1.0212,13
-4.498,2.13966,-0.435779,21
-5.71886,2.72163,1.2311,17
-4.18725,1.99363,-0.243048,40
-5.6462,2.68826,1.44374,20
-4.13966,1.97186,-0.0800367,3
-5.55623,2.6478,1.64919,10
-6.1877,2.95934,0.119724,11
-6.07875,2.90854,0.353163,7
-6.23507,2.98467,-1.34368,1
-6.00182,2.8743,0.5822,12
-6.58249,3.1538,-1.15605,6
-3.86476,1.85251,0.526232,10
-6.58925,3.15846,-0.897202,2
-3.82772,1.83558,0.672355,8
-4.27172,2.04942,-0.414513,8
-5.73459,2.75248,1.23644,12
-4.18602,2.0101,-0.243362,14
-5.66536,2.72047,1.45093,9
-4.12048,1.97951,-0.0797924,3
-5.55961,2.67207,1.65282,9
-4.05613,1.95644,0.0786056,10
-6.08655,2.93842,0.35421,9
-4.46597,2.15605,-0.963967,3
-3.93623,1.90115,0.382439,9
-4.39497,2.12366,-0.773099,9
-5.90854,2.8563,0.8058,9
-4.33542,2.09676,-0.59131,1
-5.82528,2.81856,1.02496,10
-6.508,3.1503,-0.632576,22
-5.7431,2.78003,1.24026,17
-6.4155,3.1069,-0.373574,5
-5.63654,2.73088,1.44599,12
-4.12434,1.99912,-0.0800018,5
-5.56241,2.69736,1.65644,5
-6.19618,3.01539,0.120282,9
-3.99338,1.94511,0.23279,9
-4.46334,2.17499,-0.965112,7
-5.98698,2.91875,0.582723,6
-6.47687,3.15898,-1.14135,3
-5.9128,2.88387,0.80775,13
-4.32807,2.11188,-0.59131,8
-3.82546,1.86745,0.674233,8
-6.47548,3.1625,-0.630485,6
-3.76605,1.84008,0.814754,13
-4.20239,2.05418,-0.245142,10
-3.70606,1.81237,0.952443,15
-4.11734,2.0135,-0.0800018,5
-5.5547,2.71761,1.65696,11
-6.18868,3.03984,0.120352,9
-6.10838,3.00305,0.356722,9
-4.46981,2.19748,-0.968165,7
-5.98927,2.94579,0.583943,12
-4.37966,2.15506,-0.773099,3
-5.92535,2.91692,0.810919,6
-4.31674,2.12597,-0.590823,8
-3.82745,1.88583,0.675797,6
-6.41079,3.15867,-0.625255,3
-5.74067,2.82974,1.24407,9
-6.40743,3.1598,-0.374411,14
-5.65356,2.78925,1.45543,9
-4.12248,2.03477,-0.0802462,3
-5.55336,2.74223,1.65955,8
-4.04582,2.00484,0.0788151,9
-6.10144,3.02612,0.356931,7
-4.47618,2.22005,-0.971218,7
-5.99858,2.97642,0.585861,7
-4.38449,2.17648,-0.775289,7
-5.9098,2.93493,0.810187,9
-4.32707,2.14986,-0.59326,7
-5.83563,2.90064,1.03215,6
-4.2534,2.11418,-0.415559,8
-3.76894,1.8742,0.818189,12
-4.1951,2.08703,-0.24556,1
-5.656,2.81505,1.45858,12
-6.30818,3.14102,-0.123005,5
-5.55932,2.76935,1.66421,18
-6.20665,3.10264,0.12112,4
-3.99422,1.99754,0.234046,11
-4.47367,2.2383,-0.972363,4
-5.98994,2.99823,0.586035,9
-4.39277,2.19973,-0.778105,6
-3.87799,1.9428,0.532569,10
-4.32702,2.16775,-0.594235,7
-3.82688,1.91803,0.677987,8
-4.26558,2.13884,-0.417476,5
-5.74183,2.88031,1.24865,4
-4.18958,2.10256,-0.245665,5
-5.64489,2.83291,1.45813,8
-6.31203,3.1691,-0.123284,5
-5.55701,2.79124,1.66628,9
-6.20347,3.12681,0.121259,8
-3.98401,2.00898,0.233837,4
-6.18225,3.11882,-1.34597,1
-6.01376,3.03513,0.589347,12
-4.39956,2.22141,-0.780608,9
-5.90386,2.98225,0.812137,6
-4.31804,2.1812,-0.593991,5
-3.82403,1.93249,0.678613,8
-6.27479,3.17237,-0.615145,2
-5.73925,2.90288,1.25018,11
-4.19505,2.12275,-0.246398,8
-5.65111,2.85954,1.46218,12
-4.12665,2.08904,-0.0807348,9
-5.55634,2.81402,1.66887,15
-6.20377,3.1528,0.121469,16
-6.11322,3.10947,0.359443,5
-6.17538,3.14108,-1.34673,1
-6.01431,3.06048,0.590393,6
-4.40625,2.24316,-0.783111,9
-5.92047,3.01533,0.815793,8
-4.32808,2.20527,-0.596429,3
-5.83413,2.97392,1.03716,3
-4.24775,2.16527,-0.417127,7
-3.77426,1.92474,0.823532,10
-4.20222,2.14391,-0.247235,7
-3.71618,1.89676,0.96324,9
-4.12112,2.10434,-0.0807697,3
-3.62999,1.85436,1.09222,10
-4.05018,2.07615,0.0794434,6
-3.99121,2.04768,0.235093,9
-4.4735,2.29512,-0.977324,4
-5.99119,3.07509,0.589173,6
-6.16618,3.16627,-1.09786,9
-3.88991,1.99828,0.536956,10
-4.35391,2.2376,-0.60106,7
-5.83952,3.00239,1.03998,10
-4.25966,2.19011,-0.419045,8
-5.73333,2.94906,1.25323,8
-4.2178,2.17045,-0.248596,5
-5.657,2.9123,1.46893,8
-6.17595,3.18082,-0.121259,1
-5.55373,2.86159,1.67404,6
-4.05357,2.09579,0.0796528,6
-6.11442,3.164,0.360804,15
-4.47941,2.31794,-0.980377,4
-6.0105,3.11155,0.592136,7
-6.1586,3.18959,-1.09848,9
-3.87233,2.00637,0.535494,7
-4.33197,2.24548,-0.59911,10
-3.81937,1.98062,0.681429,5
-4.25906,2.20863,-0.419742,8
-5.7474,2.98171,1.25858,4
-4.19247,2.17596,-0.247549,3
-3.71841,1.93074,0.96729,12
-4.13117,2.14597,-0.0812584,3
-3.65124,1.89747,1.10257,14
-4.05155,2.1127,0.0797575,4
-3.98744,2.08104,0.235721,4
-6.21525,3.24373,-1.36276,1
-6.02079,3.14358,0.594228,12
-6.16494,3.22021,-1.10161,9
-5.9044,3.08543,0.817987,4
-6.07626,3.17659,-0.841874,6
-5.83417,3.05133,1.04279,7
-4.26722,2.2318,-0.421311,7
-3.76433,1.96962,0.825821,9
-4.1937,2.19521,-0.248072,3
-5.63481,2.95082,1.46848,7
-4.13251,2.16502,-0.0814329,7
-5.57126,2.92002,1.68543,4
-4.06185,2.13614,0.0801065,3
-4.0049,2.10797,0.237187,6
-6.16219,3.24346,-1.3536,2
-6.02565,3.17293,0.595797,12
-4.39547,2.31551,-0.786865,6
-3.87931,2.04446,0.538419,7
-6.06163,3.19593,-0.841386,9
-3.81768,2.01368,0.683619,9
-4.26293,2.24854,-0.421659,7
-3.77306,1.99099,0.829256,6
-4.20544,2.22009,-0.249224,5
-3.71001,1.95938,0.968639,10
-4.10901,2.17102,-0.0811188,1
-3.65498,1.93195,1.10775,10
-4.0579,2.15218,0.0801764,7
-4.00457,2.12568,0.237605,8
-6.17858,3.27968,-1.3597,1
-3.93109,2.08756,0.389412,6
-4.40655,2.34103,-0.790307,7
-5.91953,3.14614,0.823106,14
-6.07147,3.22826,-0.844311,4
-5.83714,3.10497,1.04717,7
-5.95953,3.17007,-0.590567,8
-5.74012,3.05465,1.26392,9
-4.20648,2.23945,-0.249747,9
-3.71347,1.97781,0.971339,10
-5.9721,3.18211,-0.118118,2
-3.63458,1.93742,1.1036,10
-4.06094,2.17199,0.0803858,9
-4.00455,2.14272,0.238024,11
-4.47603,2.396,-0.986864,3
-3.93608,2.10785,0.390632,7
-6.1657,3.30325,-1.10787,7
-5.91201,3.16866,0.823593,11
-4.33343,2.32357,-0.603741,5
-5.8303,3.12618,1.0478,8
-5.95545,3.19462,-0.591265,11
-3.75734,2.01636,0.828874,12
-4.19336,2.25129,-0.249433,5
-3.722,1.99906,0.975388,9
-4.13994,2.22354,-0.0820263,1
-3.64004,1.95587,1.10723,10
-4.04316,2.17975,0.0801764,4
-4.00056,2.15858,0.238233,9
-4.478,2.41721,-0.989154,4
-3.94272,2.12915,0.392027,9
-6.16688,3.33025,-1.11006,7
-5.8613,3.16655,0.817987,3
-4.33793,2.34453,-0.605447,7
-5.82977,3.15215,1.04968,16
-5.95829,3.22298,-0.592659,8
-5.73474,3.10205,1.26735,6
-5.84933,3.16536,-0.348558,12
-5.66042,3.06441,1.48603,7
-4.1304,2.23703,-0.0819914,5
-5.56105,3.01312,1.69475,5
-5.81874,3.16326,0.115605,3
-3.99124,2.17158,0.238129,3
-4.48893,2.44237,-0.993352,4
-3.93039,2.13936,0.391504,6
-6.19512,3.37348,-1.11726,14
-3.87167,2.10915,0.541344,6
-4.30183,2.34446,-0.601547,1
-5.8222,3.17437,1.0503,7
-4.27175,2.32903,-0.425669,8
-5.74111,3.13146,1.27117,16
-5.86279,3.19915,-0.350023,10
-3.70317,2.02155,0.974038,10
-4.13134,2.25622,-0.0821659,5
-3.63986,1.98864,1.11137,10
-4.05765,2.22426,0.0807697,4
-3.98714,2.18742,0.238338,4
-6.17064,3.38533,-1.3681,4
-3.93163,2.15786,0.392375,4
-6.18158,3.39414,-1.11694,11
-3.88168,2.13221,0.543781,12
-6.07509,3.33843,-0.851136,3
-5.77127,3.17278,1.04311,5
-5.99034,3.29321,-0.598063,3
-5.75595,3.16567,1.27689,16
-4.18745,2.30397,-0.25048,5
-5.64572,3.10761,1.48783,5
-5.77176,3.1783,-0.115011,6
-5.56018,3.06306,1.70096,5
-4.06211,2.24518,0.0810141,9
-4.0022,2.21389,0.239699,9
-4.49583,2.48695,-0.998694,1
-3.93279,2.17639,0.393247,6
-4.41556,2.44457,-0.79938,9
-5.708,3.16139,0.801169,3
-6.08076,3.36923,-0.853573,4
-3.81477,2.11456,0.690815,11
-5.96835,3.30831,-0.597017,8
-5.73628,3.18098,1.27499,8
-4.20558,2.33311,-0.25205,7
-5.64847,3.13486,1.49143,13
-5.75189,3.19358,-0.114837,6
-5.55621,3.0862,1.70303,6
-5.68573,3.16854,0.113615,4
-4.00143,2.23174,0.240117,9
-4.50426,2.51219,-1.00251,1
-3.93387,2.19496,0.394118,9
-4.39665,2.45419,-0.797503,6
-5.67613,3.16968,0.798244,4
-6.07936,3.39625,-0.855035,12
-5.66104,3.16385,1.02715,2
-5.97589,3.33981,-0.598934,8
-5.66859,3.16937,1.26239,9
-4.19741,2.34778,-0.25205,3
-5.6664,3.17074,1.49907,15
-4.14413,2.31987,-0.0828989,5
-5.55383,3.1103,1.70562,5
-5.66069,3.18053,0.113336,12
-5.6492,3.17667,0.33966,2
-4.50916,2.5356,-1.00556,1
-3.92792,2.20966,0.394293,6
-4.39495,2.47339,-0.798755,6
-3.87471,2.1815,0.545975,9
-4.33786,2.44326,-0.611297,7
-5.62243,3.16807,1.02214,3
-5.98329,3.37141,-0.600852,7
-3.74373,2.11034,0.835362,4
-5.86626,3.30817,-0.352954,4
-5.63833,3.18092,1.49457,6
-4.13775,2.33531,-0.0829338,6
-5.55303,3.13536,1.70872,11
-5.67391,3.21407,0.113825,8
-5.59812,3.17371,0.337253,10
-4.50369,2.55326,-1.00633,1
-5.58912,3.1699,0.562155,3
-4.41721,2.50627,-0.804386,6
-5.58308,3.16905,0.788251,3
-4.33276,2.46035,-0.611784,7
-3.82677,2.17391,0.697072,11
-5.98188,3.39818,-0.601898,16
-5.58829,3.17588,1.24942,4
-5.87378,3.33948,-0.354105,4
-3.69274,2.10032,0.980787,12
-4.14174,2.35666,-0.0831782,6
-5.5622,3.16619,1.71494,10
-4.08594,2.33341,0.082131,6
-5.5714,3.18432,0.336311,16
-4.49134,2.56702,-1.00556,1
-3.94353,2.25483,0.39743,6
-4.42044,2.52854,-0.806576,5
-5.54786,3.17472,0.784839,3
-4.32759,2.47743,-0.612272,8
-3.81916,2.18725,0.697072,5
-4.27391,2.44769,-0.430898,8
-3.76808,2.15888,0.844139,9
-4.20205,2.40849,-0.253829,5
-5.523,3.16689,1.46983,3
-4.13522,2.3721,-0.0832131,6
-5.52933,3.17309,1.70821,4
-4.08123,2.34966,0.0822008,9
-3.99064,2.29936,0.241373,9
-4.49256,2.58856,-1.00785,3
-3.93046,2.26559,0.396907,10
-4.42699,2.55283,-0.809392,6
-3.87744,2.23684,0.549631,7
-4.34643,2.5084,-0.616171,10
-5.49314,3.17147,1.00462,2
-4.26879,2.46459,-0.431247,8
-3.77243,2.17889,0.84681,4
-5.87799,3.39639,-0.35578,16
-5.5001,3.17933,1.46668,7
-4.1373,2.39252,-0.0834225,4
-5.47308,3.16625,1.69423,5
-5.67108,3.29138,0.114453,4
-5.58932,3.24523,0.338718,6
-4.50727,2.61803,-1.0132,4
-5.4936,3.19222,0.555879,10
-4.42146,2.57026,-0.810018,4
-3.8679,2.24936,0.549387,9
-4.35823,2.53553,-0.619096,8
-3.82638,2.22611,0.701139,8
-4.26705,2.48348,-0.431944,8
-5.44784,3.17199,1.22538,4
-4.21275,2.45385,-0.255504,5
-3.69748,2.15458,0.987985,13
-5.76726,3.36067,-0.116512,2
-5.44252,3.17271,1.68802,4
-5.67221,3.31723,0.114697,3
-5.5883,3.27078,0.339346,8
-4.50827,2.6397,-1.01549,3
-5.50649,3.22547,0.55832,6
-4.42485,2.59189,-0.812208,3
-5.41383,3.17246,0.770458,12
-4.35323,2.55198,-0.619584,5
-3.83221,2.24745,0.703642,8
-4.2721,2.50642,-0.433338,8
-3.75581,2.20352,0.846429,9
-4.19081,2.45972,-0.254667,7
-5.39935,3.17032,1.44554,2
-5.77964,3.39496,-0.117001,20
-5.38977,3.16722,1.67508,8
-4.08094,2.40578,0.0826895,4
-5.59119,3.29741,0.340184,10
-4.49611,2.65264,-1.01472,1
-5.4889,3.23966,0.557622,7
-4.41748,2.60833,-0.812521,4
-5.40272,3.19134,0.770458,19
-5.73884,3.39124,-0.818475,1
-3.82814,2.26215,0.704268,4
-4.26891,2.52362,-0.433861,5
-3.76669,2.22761,0.850627,7
-4.20455,2.48755,-0.256028,9
-5.35639,3.17028,1.43699,8
-4.14557,2.45363,-0.0840857,6
-3.64711,2.15947,1.1357,10
-4.07638,2.42134,0.0827593,7
-5.58651,3.32099,0.340602,10
-5.70513,3.39285,-1.29025,1
-3.95192,2.35115,0.402311,9
-4.42748,2.63407,-0.815962,4
-3.87222,2.30464,0.553287,9
-5.70368,3.39603,-0.815062,1
-5.34084,3.18126,0.984599,8
-4.26692,2.54259,-0.434559,3
-5.32944,3.17572,1.20591,2
-4.19799,2.5025,-0.256132,5
-3.69891,2.20587,0.994284,13
-4.12667,2.46194,-0.0838763,6
-5.30837,3.16819,1.65644,3
-5.68065,3.40114,0.11557,11
-4.00556,2.40013,0.244723,7
-5.67364,3.39964,-1.28567,1
-3.9424,2.36322,0.402137,4
-4.43011,2.65662,-0.818152,3
-3.87947,2.32734,0.55548,7
-5.67818,3.40775,-0.813112,1
-5.32293,3.19581,0.983347,8
-5.66429,3.40076,-0.578017,2
-3.7851,2.27342,0.858259,7
-5.68379,3.41517,-0.347511,2
-3.70288,2.22579,0.997433,3
-4.1232,2.47942,-0.083981,6
-5.26913,3.16977,1.64764,6
-4.07649,2.46007,0.0831084,4
-5.59397,3.37849,0.342487,12
-5.63821,3.40521,-1.28033,1
-5.48765,3.31559,0.560934,6
-4.43096,2.6782,-0.82003,6
-5.41204,3.27249,0.776551,5
-4.36179,2.63847,-0.625921,1
-3.82452,2.31439,0.708022,8
-4.26997,2.58395,-0.43665,1
-3.7721,2.28357,0.857114,10
-5.62742,3.40808,-0.344789,2
-3.71342,2.24981,1.00238,7
-5.63651,3.41628,-0.115046,2
-3.63751,2.20556,1.13984,12
-4.06446,2.47221,0.0830386,6
-5.58896,3.40215,0.342905,24
-5.49646,3.34716,0.563026,9
-4.43002,2.69879,-0.821594,7
-5.40567,3.29446,0.777283,7
-4.36442,2.66091,-0.627627,5
-3.82485,2.33287,0.709587,5
-4.28598,2.61515,-0.439265,2
-5.23891,3.19659,1.19294,11
-5.5848,3.40898,-0.342905,2
-3.70388,2.26175,1.00193,10
-5.60407,3.42343,-0.114627,2
-5.19907,3.17727,1.63263,4
-4.07286,2.49683,0.0833876,3
-4.00404,2.45656,0.246188,7
-3.94927,2.42486,0.405449,9
-4.43524,2.72431,-0.82441,9
-3.88364,2.3855,0.559624,9
-4.36694,2.68341,-0.629333,7
-5.34134,3.28345,0.993046,3
-4.28531,2.63531,-0.440136,5
-3.76737,2.3177,0.859785,6
-4.20301,2.58672,-0.258644,5
-5.16915,3.18257,1.40145,11
-4.13106,2.54343,-0.0846791,2
-3.64505,2.24508,1.14709,10
-5.52143,3.41277,0.113301,1
-4.0018,2.47542,0.246607,10
-3.95095,2.44492,0.406494,9
-4.41059,2.73042,-0.821594,7
-3.87825,2.40181,0.560112,9
-4.36382,2.70358,-0.630308,7
-5.32927,3.303,0.993046,5
-4.2998,2.66495,-0.442577,7
-3.76426,2.33394,0.86093,4
-4.21093,2.61191,-0.259691,5
-3.70913,2.30155,1.00778,7
-4.12851,2.56278,-0.0848187,6
-3.64665,2.26454,1.15019,9
-4.07695,2.53965,0.0838414,3
-4.01347,2.50206,0.247863,5
-5.4639,3.4076,0.563375,3
-4.12618,2.57432,-0.770283,2
-5.43091,3.38966,0.786057,10
-4.36615,2.72615,-0.632014,5
-3.81488,2.38287,0.712403,8
-4.29723,2.68416,-0.443274,7
-3.77274,2.35747,0.864746,10
-4.21364,2.634,-0.260424,7
-5.15837,3.22581,1.40459,6
-4.12632,2.58141,-0.0849583,6
-3.6289,2.27111,1.14709,6
-4.06298,2.55068,0.0837367,6
-4.01023,2.51854,0.248177,3
-4.52336,2.8419,-1.03838,3
-5.41655,3.40438,0.559714,3
-5.42073,3.40965,0.786301,29
-4.3638,2.74484,-0.632989,3
-3.82702,2.40814,0.716157,8
-4.29964,2.70658,-0.444494,10
-3.75618,2.36539,0.862838,7
-4.2078,2.65082,-0.260633,9
-5.16908,3.2564,1.41044,8
-4.13634,2.60681,-0.0853423,6
-3.64586,2.29859,1.15485,9
-4.0714,2.57483,0.0840857,6
-4.02549,2.54677,0.249643,3
-4.52386,2.86318,-1.04067,3
-5.38839,3.41167,0.557971,4
-3.88349,2.46074,0.564499,6
-4.11825,2.60949,-0.598622,8
-5.33894,3.38428,1.00118,6
-4.30073,2.72722,-0.44554,10
-5.24532,3.3275,1.20744,2
-4.20236,2.6669,-0.260842,7
-3.70868,2.3536,1.01408,4
-4.13443,2.6248,-0.0854819,4
-3.63984,2.3117,1.15537,9
-4.07633,2.59691,0.0843649,7
-4.00186,2.55045,0.2487,5
-4.52593,2.88555,-1.04334,3
-3.94922,2.51884,0.409806,9
-4.42963,2.82633,-0.832231,3
-3.88033,2.47681,0.56523,9
-5.33435,3.40621,1.00243,25
-4.30006,2.74683,-0.446412,7
-5.24419,3.35122,1.20973,9
-4.19854,2.68405,-0.261156,5
-5.15886,3.29796,1.41359,6
-4.14424,2.65035,-0.0858658,6
-3.64355,2.33104,1.15899,10
-4.09294,2.62661,0.0848885,1
-4.00682,2.57234,0.249538,5
-4.50808,2.89524,-1.04144,1
-3.95258,2.53946,0.411026,9
-4.45845,2.86557,-0.839427,6
-3.88546,2.49825,0.56718,9
-3.81284,2.4525,0.718034,6
-4.30098,2.76754,-0.447458,5
-3.77374,2.42921,0.872379,10
-4.1997,2.70444,-0.261784,6
-3.6979,2.38131,1.01543,9
-4.14215,2.66841,-0.0860055,6
-3.64879,2.35149,1.16313,4
-4.10344,2.65463,0.0853074,1
-4.02039,2.6029,0.251003,8
-4.52051,2.92668,-1.04678,1
-3.94157,2.55284,0.410852,3
-4.45455,2.88619,-0.840679,3
-5.24721,3.40107,0.767777,3
-3.8034,2.46712,0.718034,9
-5.24866,3.40592,1.21622,16
-4.21656,2.73722,-0.263459,6
-3.69854,2.40186,1.01813,6
-4.14696,2.6941,-0.0863196,6
-3.63974,2.36548,1.16313,9
-4.08242,2.66129,0.085063,3
-4.00459,2.61255,0.250585,10
-4.51797,2.9486,-1.04869,3
-5.22512,3.41141,0.545944,3
-4.4489,2.90574,-0.841618,6
-5.22534,3.41285,0.766314,3
-4.38054,2.86218,-0.642495,1
-3.82783,2.502,0.724292,5
-5.223,3.41653,1.21316,2
-4.13965,2.70891,-0.259272,5
-5.16037,3.37814,1.42394,5
-4.1459,2.71403,-0.0864941,6
-3.63469,2.38029,1.16417,10
-4.08601,2.68503,0.0853423,4
-4.01547,2.63968,0.251841,8
-4.52897,2.97838,-1.05365,4
-3.94817,2.59741,0.413467,3
-4.44039,2.92234,-0.84193,6
-3.88307,2.55652,0.570836,8
-4.39705,2.89492,-0.646395,1
-3.84052,2.52947,0.728359,2
-5.17662,3.41205,1.20515,4
-3.97177,2.6189,-0.249329,1
-5.17192,3.41025,1.43024,41
-4.1581,2.7428,-0.0869479,4
-3.64571,2.40573,1.17038,3
-4.08042,2.70077,0.0854121,6
-4.00337,2.65077,0.251631,5
-4.51744,2.99229,-1.05327,3
-3.95614,2.62149,0.41521,9
-4.45372,2.95233,-0.846311,6
-3.88615,2.57706,0.572542,9
-4.36261,2.89303,-0.642739,3
-3.8354,2.54438,0.728985,4
-4.30791,2.85892,-0.452338,3
-3.75537,2.49317,0.876195,10
-3.68497,2.44736,1.02128,10
-3.94745,2.62268,-0.0827244,1
-3.64575,2.42315,1.17297,6
-4.0914,2.7276,0.0858309,7
-4.04227,2.69688,0.254667,1
-4.51729,3.01379,-1.05556,3
-3.96234,2.64455,0.416779,10
-4.45048,2.97147,-0.847562,6
-3.88088,2.59214,0.57303,9
-4.37229,2.92147,-0.645664,5
-3.83471,2.56324,0.730549,8
-4.30453,2.87837,-0.453036,3
-3.76667,2.51871,0.880774,9
-5.1162,3.4237,1.42124,2
-3.83358,2.56636,-0.0805254,5
-3.64209,2.43909,1.17452,9
-4.07688,2.73852,0.0857262,4
-4.03946,2.71543,0.255085,1
-4.53716,3.05115,-1.06281,1
-3.95262,2.65906,0.416779,6
-4.44283,2.98997,-0.848188,6
-3.88334,2.61343,0.574736,4
-4.38347,2.95113,-0.648832,5
-3.83229,2.58102,0.731801,9
-4.30106,2.89783,-0.453733,3
-3.7623,2.53579,0.881919,3
-4.24101,2.85952,-0.268065,6
-5.06484,3.41628,1.41044,2
-3.64316,2.45827,1.17763,4
-3.76544,2.5494,0.0793735,12
-4.025,2.72615,0.254771,5
-4.54111,3.07688,-1.06624,3
-3.93507,2.66725,0.415907,4
-4.45526,3.02098,-0.852568,9
-3.88195,2.63322,0.575955,1
-4.39234,2.98055,-0.651757,7
-3.83634,2.60326,0.734303,6
-4.29752,2.9173,-0.45443,3
-3.75829,2.55222,0.883064,3
-4.24422,2.88329,-0.268902,6
-3.68933,2.50727,1.02983,7
-3.63136,2.4688,1.17659,4
-4.02866,2.74919,0.255609,8
-4.57412,3.1226,-1.07654,3
-3.94713,2.69558,0.418173,4
-4.47132,3.05356,-0.857574,9
-3.86008,2.63712,0.574005,3
-4.38899,2.99958,-0.652732,7
-3.83375,2.62109,0.735555,4
-4.31855,2.95365,-0.457742,10
-3.75953,2.57132,0.885354,9
-4.23793,2.8996,-0.269112,6
-3.70673,2.5371,1.03702,10
-3.63547,2.49019,1.18073,9
-3.75735,2.58332,0.238966,13
-4.60419,3.16555,-1.08608,3
-3.96607,2.72784,0.421137,6
-4.542,3.12513,-0.873217,9
-3.88846,2.67646,0.579611,8
-4.37849,3.01488,-0.652732,7
-3.83596,2.6423,0.737745,2
-4.31314,2.9721,-0.458265,6
-3.7667,2.59556,0.88917,10
-4.24423,2.92571,-0.270158,6
-3.70266,2.55334,1.03837,1
-4.17102,2.87739,-0.0884488,2
-3.64107,2.51274,1.18539,6
-3.69413,2.55889,0.235512,4
-4.57642,3.17123,-1.08227,3
-3.95277,2.74009,0.420788,6
-4.61006,3.19692,-0.888548,10
-3.88399,2.69341,0.580342,9
-4.39077,3.04599,-0.656145,7
-3.82672,2.65568,0.737745,4
-4.32565,3.00305,-0.460705,5
-3.77329,2.62055,0.892986,9
-4.24004,2.94581,-0.270577,6
-3.71568,2.58246,1.04467,3
-4.17409,2.90106,-0.088728,2
-3.63862,2.52985,1.18746,2
-4.08046,2.84656,0.0868432,4
-4.59108,3.20516,-1.08837,4
-3.92685,2.74247,0.419045,3
-4.58591,3.20394,-0.886045,10
-3.88711,2.71673,0.582292,9
-4.3926,3.07116,-0.658094,5
-3.82714,2.67581,0.739622,5
-4.30861,3.01356,-0.460008,6
-3.76894,2.63708,0.894131,4
-4.23628,2.96517,-0.270996,6
-3.69706,2.58871,1.04197,6
-4.16066,2.91332,-0.0886582,2
-3.62344,2.5381,1.18539,9
-4.08081,2.86698,0.0870526,9
-4.5895,3.22795,-1.09066,4
-3.65491,2.57157,0.390981,12
-4.56234,3.21003,-0.883542,12
-3.87645,2.72846,0.582048,9
-4.39213,3.09257,-0.659557,7
-3.82585,2.69484,0.741187,8
-4.31109,3.03776,-0.461402,7
-3.75055,2.64278,0.891841,4
-4.23948,2.98841,-0.271833,8
-3.71235,2.6178,1.04872,10
-4.15046,2.92783,-0.0886582,2
-3.61929,2.55407,1.18694,9
-4.07731,2.88583,0.0871922,9
-4.01429,2.84333,0.257807,1
-4.65246,3.29535,-1.10822,4
-4.51887,3.2031,-0.877285,11
-3.85233,2.73164,0.579854,4
-4.41045,3.12855,-0.663944,10
-3.81964,2.71047,0.741812,8
-4.32159,3.06779,-0.463669,8
-3.75571,2.66608,0.895276,9
-4.22739,3.00203,-0.271728,8
-3.70001,2.62849,1.04782,4
-4.16304,2.95852,-0.0891469,2
-3.63712,2.58572,1.19574,5
-4.09,2.91629,0.0876809,8
-4.0206,2.86892,0.258854,3
-4.68989,3.34774,-1.12005,4
-3.64011,2.59934,0.391329,1
-4.55693,3.25523,-0.886984,14
-3.60533,2.57545,0.544025,15
-4.42534,3.16239,-0.667844,8
-3.54822,2.53653,0.690815,12
-4.33354,3.09908,-0.466109,8
-3.76667,2.69468,0.900237,7
-4.2326,3.02913,-0.272775,10
-3.69828,2.6477,1.05007,3
-4.16082,2.97885,-0.0893214,4
-3.63592,2.60403,1.19833,4
-4.08903,2.93827,0.0878903,8
-4.00083,2.87594,0.258226,3
-4.64311,3.33887,-1.11165,8
-4.60166,3.3115,-0.897934,15
-4.45294,3.20566,-0.673694,12
-3.52972,2.54197,0.688937,17
-4.38412,3.15844,-0.472733,10
-3.75565,2.70666,0.899855,4
-4.23658,3.0544,-0.273717,6
-3.69422,2.66337,1.05142,4
-4.16661,3.00505,-0.0896705,4
-3.63465,2.62235,1.20092,9
-4.09222,2.96119,0.0881696,9
-4.00259,2.89739,0.258958,3
-4.59703,3.32891,-1.10326,9
-3.93213,2.84848,0.424797,4
-4.62904,3.35456,-0.905443,14
-3.54708,2.57143,0.537931,1
-4.48086,3.24837,-0.679543,12
-3.70518,2.68703,0.724917,8
-4.45426,3.23146,-0.481448,10
-3.77048,2.7364,0.90558,6
-4.29108,3.11536,-0.277904,6
-3.70429,2.68935,1.05682,9
-4.16471,3.02473,-0.089845,4
-3.6228,2.63212,1.19989,10
-4.08561,2.9771,0.0882394,6
-4.00214,2.91841,0.259586,3
-4.60817,3.36034,-1.1086,9
-3.93071,2.86737,0.425669,3
-4.60034,3.35709,-0.902001,13
-4.50797,3.29209,-0.685393,14
-3.56019,2.6009,0.698324,1
-4.44939,3.25169,-0.482146,11
-3.75822,2.74657,0.904816,7
-4.32265,3.16022,-0.280625,6
-3.71218,2.71492,1.06177,7
-4.17188,3.05224,-0.0902289,6
-3.63542,2.66072,1.20713,5
-4.08809,3.00081,0.0885186,4
-4.01929,2.95246,0.261366,3
-4.58791,3.37139,-1.10669,11
-3.93783,2.89474,0.427586,1
-4.59119,3.37627,-0.902627,13
-4.51883,3.32427,-0.688806,12
-3.51291,2.58521,0.690815,1
-4.44603,3.27311,-0.483017,12
-3.48255,2.56474,0.840704,13
-4.28852,3.15946,-0.27916,8
-3.70848,2.73313,1.06357,4
-4.17891,3.07983,-0.0906129,6
-3.62766,2.67454,1.20765,4
-4.08993,3.02528,0.0887978,6
-4.01057,2.96766,0.26147,5
-4.6061,3.40958,-1.11394,9
-3.97574,2.94404,0.432815,1
-4.56033,3.37816,-0.898873,13
-3.87881,2.87436,0.592773,4
-4.46835,3.31244,-0.682956,16
-4.42658,3.28268,-0.482146,11
-3.73059,2.76755,0.902908,1
-4.31436,3.20179,-0.281567,10
-3.69735,2.74489,1.06312,9
-4.19222,3.11228,-0.0911365,6
-3.64002,2.70332,1.2149,8
-4.10233,3.05555,0.0892865,6
-4.00338,2.98403,0.26168,5
-4.58473,3.41859,-1.11165,6
-3.95585,2.95075,0.43177,1
-4.54277,3.38854,-0.897621,13
-3.90267,2.91214,0.597891,9
-4.45734,3.32724,-0.682956,18
-4.40392,3.28976,-0.480925,16
