x,y,z,intensity
-1.1095,3.04998,0.869632,49
-1.12498,3.10604,0.0576628,67
-1.11845,3.09138,0.17229,48
-1.11587,3.08591,0.287091,63
-1.11273,3.0806,0.402169,57
-1.10755,3.06962,0.51686,61
-0.265749,0.736533,-0.0685044,7
-1.10555,3.06575,0.633486,65
-1.11942,3.1059,-0.173023,64
-1.10358,3.06364,0.751786,63
-1.11089,3.08562,-0.0572439,53
-1.09819,3.05201,0.869114,51
-1.10672,3.08924,0.0572788,61
-1.10631,3.09151,0.172081,51
-1.1071,3.09542,0.287614,65
-1.09796,3.07325,0.400706,56
-1.09816,3.07719,0.517485,61
-0.267194,0.748715,-0.0695503,7
-1.09221,3.0622,0.631959,63
-1.10455,3.0985,-0.172395,56
-1.09288,3.06747,0.751786,63
-1.10146,3.09325,-0.0573137,51
-1.08688,3.05401,0.868597,50
-1.0986,3.10063,0.0574184,61
-1.09605,3.09516,0.172081,48
-1.09695,3.10114,0.287788,61
-1.08392,3.0677,0.399488,59
-1.08927,3.08454,0.518111,59
-0.267232,0.757158,-0.0702475,7
-1.0802,3.06229,0.631196,65
-1.09306,3.10045,-0.17229,54
-1.08282,3.07311,0.752236,66
-1.09252,3.10065,-0.0573835,51
-1.07803,3.06124,0.869632,49
-1.0903,3.10991,0.0575231,58
-1.08392,3.09519,0.171871,48
-1.08612,3.10495,0.287788,52
-1.0744,3.07316,0.399731,58
-0.203641,0.582811,-0.0758027,12
-1.07393,3.07527,0.515921,59
-0.263274,0.754324,-0.0698989,7
-1.07393,3.07698,0.633486,63
-1.08211,3.10217,-0.172185,58
-1.07069,3.07116,0.750887,67
-1.07906,3.09689,-0.0572439,52
-1.07052,3.07411,0.87222,51
-1.08271,3.12315,0.0576977,61
-1.07496,3.10255,0.172081,43
-1.07387,3.10289,0.287265,48
-0.19501,0.56379,-0.0944864,7
-1.06496,3.08064,0.400219,58
-1.06696,3.08815,0.517485,60
-0.255569,0.740127,-0.0685044,7
-1.06574,3.08813,0.635012,62
-1.07323,3.1116,-0.172499,54
-1.0587,3.07119,0.749987,63
-1.06944,3.10235,-0.0572788,48
-1.05906,3.07399,0.871185,47
-1.0704,3.12105,0.0575929,60
-1.06412,3.10628,0.172081,48
-1.06432,3.11039,0.287614,65
-0.193139,0.564434,-0.0944864,7
-1.05731,3.09167,0.401194,57
-1.05489,3.08812,0.51686,63
-0.252984,0.741014,-0.0685044,7
-1.05423,3.08793,0.634249,63
-1.06613,3.12459,-0.173023,52
-1.04976,3.07838,0.750887,63
-1.05924,3.10795,-0.0573137,51
-1.04708,3.07401,0.87015,47
-1.05821,3.12098,0.0575231,63
-1.05456,3.11376,0.17229,51
-1.05655,3.12145,0.288311,62
-0.191167,0.565105,-0.0944864,7
-1.04778,3.0991,0.401681,56
-1.04474,3.09365,0.517172,64
-0.259316,0.768322,-0.0709448,7
-1.04093,3.08415,0.632723,63
-1.05458,3.1264,-0.172918,60
-1.04275,3.0931,0.753586,63
-1.04839,3.11163,-0.0573137,51
-1.03757,3.0813,0.871185,45
-1.04477,3.11707,0.0573835,65
-1.04368,3.11742,0.17229,48
-1.04637,3.12908,0.28866,72
-0.189095,0.565802,-0.0944864,7
-1.03129,3.08579,0.399488,59
-1.03393,3.09728,0.517172,60
-0.257893,0.773002,-0.0712934,6
-1.02838,3.08422,0.631959,65
-1.03806,3.11509,-0.172081,58
-1.03079,3.09505,0.753136,65
-1.03879,3.11907,-0.0573835,52
-1.03108,3.09774,0.874808,41
-1.03774,3.13416,0.0576278,61
-1.03028,3.11346,0.171871,51
-1.02856,3.1119,0.286742,65
-0.197032,0.596469,-0.0994923,7
-1.02185,3.09521,0.400219,57
-1.02312,3.10087,0.517172,63
-0.256441,0.777682,-0.071642,6
-1.02129,3.09898,0.634249,63
-1.02718,3.11869,-0.172081,50
-1.01503,3.0818,0.749087,63
-1.02914,3.12647,-0.0574533,51
-1.02147,3.10499,0.875844,30
-1.0261,3.13379,0.057558,62
-1.02119,3.12066,0.172081,55
-0.166602,0.509417,-0.104182,14
-1.02009,3.12098,0.287265,72
-0.185239,0.567076,-0.0944864,7
-1.01527,3.1099,0.401681,56
-1.01283,3.10425,0.517172,61
-0.255096,0.782317,-0.0719906,6
-1.01222,3.10608,0.635012,63
-1.02302,3.14107,-0.173127,66
-1.00722,3.09256,0.750887,68
-1.01691,3.12416,-0.0573486,50
-1.00878,3.10101,0.873773,33
-1.01693,3.14098,0.0576278,57
-1.0133,3.13163,0.172499,43
-1.00177,3.0997,0.284999,65
-0.183358,0.567687,-0.0944864,7
-1.00434,3.11136,0.401438,64
-0.189648,0.587513,-0.0758027,12
-0.999495,3.09819,0.515608,67
-0.240273,0.745233,-0.0685044,7
-1.00071,3.10568,0.634249,66
-1.01138,3.14064,-0.172918,54
-0.996961,3.09588,0.750887,68
-1.00593,3.12562,-0.0573137,51
-0.996121,3.09698,0.871703,33
-1.00468,3.13862,0.0575231,58
-1.00413,3.13877,0.172709,43
-1.00119,3.13337,0.287788,61
-0.186282,0.583346,-0.0969894,7
-0.992814,3.11089,0.40095,64
-0.17925,0.561663,-0.0723904,13
-0.990415,3.10525,0.516234,71
-0.242641,0.761212,-0.0698989,7
-0.986239,3.09589,0.631578,68
-0.999136,3.13827,-0.172604,58
-0.989644,3.10846,0.753136,70
-0.996775,3.13275,-0.0573835,51
-0.987602,3.10579,0.873255,32
-0.992567,3.14037,0.0574882,61
-0.992668,3.14451,0.172813,40
-0.992098,3.14462,0.288485,61
-0.182954,0.580257,-0.0963636,7
-0.979018,3.10694,0.399975,64
-0.178284,0.566134,-0.0728779,13
-0.980264,3.11468,0.517172,71
-0.235064,0.746892,-0.0685044,7
-0.973119,3.09387,0.630433,67
-0.985831,3.13619,-0.17229,55
-0.97595,3.10665,0.751786,68
-0.986537,3.14227,-0.0574882,48
-0.977404,3.11509,0.874808,30
-0.983984,3.15145,0.0576278,57
-0.978713,3.13842,0.17229,47
-0.982894,3.15377,0.289008,58
-0.185627,0.59598,-0.0988666,7
-0.966988,3.10655,0.399488,63
-0.177486,0.570544,-0.0733654,13
-0.968798,3.1162,0.51686,70
-0.238371,0.766734,-0.0702475,7
-0.965808,3.10849,0.632723,67
-0.976061,3.14343,-0.172499,54
-0.963944,3.10632,0.750887,73
-0.973784,3.13997,-0.0573835,51
-0.965381,3.11479,0.873773,33
-0.974744,3.1606,0.0577326,60
-0.965399,3.13419,0.171871,47
-0.971293,3.15528,0.288834,57
-0.182384,0.592848,-0.0982409,14
-0.958471,3.11749,0.400463,64
-0.163833,0.533209,-0.0684906,14
-0.956756,3.11579,0.516234,71
-0.236728,0.771412,-0.0705962,7
-0.957256,3.11935,0.634249,66
-0.968597,3.15828,-0.173127,54
-0.953666,3.11153,0.751337,70
-0.963404,3.14526,-0.0574184,48
-0.955634,3.12184,0.874808,36
-0.963706,3.16399,0.0577326,58
-0.959103,3.15282,0.172709,47
-0.957985,3.1531,0.288311,62
-0.174471,0.574611,-0.0951122,15
-0.951042,3.13222,0.401925,60
-0.17004,0.560372,-0.0719029,13
-0.945875,3.11911,0.516234,70
-0.234034,0.772233,-0.0705962,7
-0.945815,3.12284,0.634249,66
-0.957594,3.16372,-0.173232,51
-0.943948,3.1206,0.752686,68
-0.952418,3.1486,-0.0574184,48
-0.941935,3.11591,0.87222,39
-0.949224,3.15792,0.057558,57
-0.949241,3.15998,0.172918,46
-0.946399,3.15451,0.288137,61
-0.177002,0.590354,-0.0976151,14
-0.939557,3.13568,0.401925,60
-0.157735,0.526761,-0.0675156,15
-0.936114,3.12617,0.51686,71
-0.232479,0.776863,-0.0709448,7
-0.93266,3.1186,0.632723,67
-0.945972,3.16513,-0.173127,56
-0.93305,3.12388,0.752686,68
-0.943712,3.15957,-0.057558,48
-0.929396,3.11362,0.870667,43
-0.940456,3.1668,0.0576628,58
-0.938206,3.16327,0.172918,43
-0.93821,3.16735,0.289008,62
-0.169433,0.571997,-0.0944864,15
-0.923519,3.11974,0.399488,64
-0.153735,0.519667,-0.0665407,15
-0.926875,3.13511,0.517798,67
-0.228637,0.773848,-0.0705962,7
-0.923426,3.12544,0.633486,66
-0.934341,3.16442,-0.172918,54
-0.922684,3.12695,0.752686,67
-0.932678,3.16285,-0.057558,50
-0.921797,3.12797,0.873773,45
-0.929396,3.17007,0.0576628,58
-0.924912,3.15886,0.172499,46
-0.927143,3.16853,0.288834,57
-0.167436,0.572585,-0.0944864,7
-0.917077,3.13819,0.401438,59
-0.145242,0.497335,-0.0636158,16
-0.91814,3.14591,0.51905,71
-0.229419,0.786078,-0.071642,6
-0.91141,3.12488,0.632723,67
-0.923288,3.16766,-0.172918,54
-0.909584,3.12267,0.750887,68
-0.921631,3.16608,-0.057558,47
-0.914111,3.1423,0.876879,42
-0.921104,3.18289,0.0578373,57
-0.913881,3.16207,0.172499,46
-0.916078,3.17175,0.288834,57
-0.162149,0.561779,-0.0926092,7
-0.905018,3.13756,0.40095,60
-0.149004,0.516913,-0.0660532,15
-0.903326,3.13581,0.51686,68
-0.223364,0.775387,-0.0705962,3
-0.904842,3.14313,0.635776,65
-0.911674,3.16894,-0.172813,48
-0.899756,3.12957,0.751786,68
-0.908364,3.16159,-0.0574184,48
-0.902072,3.14175,0.875844,39
-0.909987,3.18609,0.0578373,57
-0.904486,3.16892,0.172709,46
-0.902269,3.16534,0.287963,58
-0.160187,0.562341,-0.0926092,7
-0.897864,3.15406,0.402656,58
-0.154803,0.544161,-0.0694655,14
-0.894003,3.14258,0.517485,68
-0.214118,0.753164,-0.0685044,3
-0.894938,3.15005,0.636539,63
-0.906606,3.19324,-0.173965,54
-0.892017,3.14394,0.754486,67
-0.898967,3.16844,-0.0574882,48
-0.888485,3.13358,0.872738,33
-0.895617,3.17562,0.0575929,60
-0.895585,3.17975,0.173127,43
-0.892294,3.17231,0.288311,56
-0.148694,0.528641,-0.0869776,8
-0.886863,3.15511,0.402413,60
-0.166955,0.59436,-0.0758027,12
-0.883028,3.14569,0.517485,67
-0.219022,0.780764,-0.0709448,3
-0.880245,3.13788,0.633486,66
-0.893856,3.18854,-0.173546,54
-0.882113,3.14876,0.754936,70
-0.890058,3.17926,-0.0576278,46
-0.878583,3.14038,0.873773,30
-0.886134,3.18451,0.0576977,57
-0.884479,3.18286,0.173127,43
-0.882302,3.17717,0.288485,57
-0.159525,0.574839,-0.0944864,7
-0.873721,3.15054,0.401438,59
-0.874152,3.15636,0.518737,67
-0.216295,0.781524,-0.0709448,3
-0.870333,3.14471,0.634249,65
-0.873669,3.15891,-0.171767,45
-0.873193,3.15933,0.756735,65
-0.87789,3.17849,-0.057558,48
-0.871727,3.15833,0.877914,19
-0.876602,3.19336,0.0578024,58
-0.870196,3.17437,0.172499,43
-0.87486,3.19576,0.28988,61
-0.157417,0.57542,-0.0944864,7
-0.862719,3.15357,0.401438,60
-0.863649,3.1613,0.51905,67
-0.221962,0.813027,-0.0737338,3
-0.859835,3.15167,0.635012,65
-0.86051,3.15631,-0.171453,46
-0.855973,3.14183,0.751786,57
-0.868893,3.18925,-0.0576977,46
-0.859176,3.15576,0.876361,12
-0.86698,3.20428,0.057942,55
-0.860153,3.18124,0.172709,46
-0.861102,3.18917,0.289008,56
-0.853223,3.16438,0.402413,59
-0.850552,3.15667,0.517798,70
-0.221194,0.821492,-0.074431,2
-0.85189,3.16603,0.637302,66
-0.860896,3.20173,-0.173755,56
-0.846054,3.14653,0.752236,28
-0.854642,3.18068,-0.0574882,48
-0.848154,3.15874,0.876361,6
-0.854802,3.20134,0.0578373,56
-0.851143,3.18987,0.173023,41
-0.848983,3.18624,0.288485,57
-0.844766,3.17486,0.403388,59
-0.84211,3.16711,0.51905,67
-0.213352,0.802965,-0.0726879,3
-0.840378,3.16504,0.636539,63
-0.852323,3.21229,-0.174174,56
-0.839614,3.16439,0.755836,15
-0.846139,3.19123,-0.0576278,46
-0.83718,3.15966,0.875844,6
-0.841125,3.19255,0.0576278,51
-0.841528,3.19861,0.173337,42
-0.838413,3.18903,0.288485,57
-0.834233,3.17765,0.403388,59
-0.832052,3.17385,0.519675,68
-0.213578,0.815269,-0.0737338,3
-0.828883,3.16401,0.635776,63
-0.841159,3.21316,-0.174069,58
-0.830537,3.17484,0.757635,10
-0.837524,3.20384,-0.0578024,45
-0.829075,3.17378,0.87895,7
-0.83048,3.1974,0.0576628,53
-0.831861,3.20733,0.173651,38
-0.830215,3.20559,0.289706,62
-0.819157,3.16516,0.401438,59
-0.820473,3.17482,0.519363,67
-0.208738,0.808293,-0.0730365,3
-0.81728,3.16703,0.635776,65
-0.825887,3.20269,-0.173337,54
-0.819867,3.18164,0.758535,8
-0.826334,3.20674,-0.0578024,42
-0.817028,3.17292,0.877914,12
-0.82371,3.2198,0.0580118,53
-0.815652,3.19294,0.172709,43
-0.817543,3.20267,0.289183,57
-0.809512,3.17584,0.402413,59
-0.80932,3.17972,0.519675,68
-0.207881,0.81674,-0.0737338,3
-0.807189,3.17367,0.636539,65
-0.815687,3.20942,-0.173546,54
-0.806836,3.17693,0.756735,6
-0.813101,3.20393,-0.0576977,46
-0.806344,3.17963,0.87895,13
-0.811978,3.22072,0.0579769,56
-0.806451,3.20352,0.173127,43
-0.808303,3.21324,0.28988,57
-0.800355,3.18635,0.403388,59
-0.799176,3.18636,0.520301,67
-0.209876,0.836786,-0.0754769,2
-0.797059,3.18027,0.637302,67
-0.80545,3.21613,-0.173755,54
-0.798581,3.19107,0.759435,6
-0.802881,3.21063,-0.0577675,46
-0.794302,3.17868,0.877914,18
-0.80073,3.22353,0.0579769,53
-0.79823,3.21587,0.173651,41
-0.794685,3.20637,0.289008,58
-0.791134,3.19683,0.404362,59
-0.788606,3.18899,0.520301,70
-0.195483,0.791093,-0.0712934,3
-0.785953,3.18304,0.637302,65
-0.797088,3.23055,-0.174383,56
-0.786505,3.19005,0.758535,7
-0.790795,3.20745,-0.0576628,42
-0.783294,3.17942,0.877397,28
-0.787658,3.21646,0.0578024,55
-0.788423,3.22445,0.173965,43
-0.117891,0.48251,-0.0965494,15
-0.783487,3.20912,0.289008,58
-0.141491,0.579542,-0.0944864,7
-0.779118,3.19365,0.403631,58
-0.778403,3.19556,0.520927,68
-0.774465,3.18181,0.636539,63
-0.784012,3.22347,-0.17386,47
-0.777301,3.19832,0.759885,11
-0.78148,3.21796,-0.0578024,41
-0.774015,3.18965,0.879467,36
-0.775956,3.21724,0.0577675,53
-0.77763,3.22913,0.174069,40
-0.125483,0.521072,-0.104182,14
-0.774706,3.21945,0.289706,56
-0.125613,0.522413,-0.0851004,8
-0.76843,3.19828,0.403875,59
-0.768168,3.2021,0.521553,68
-0.762439,3.18068,0.635776,63
-0.770428,3.21648,-0.173337,46
-0.764771,3.19533,0.758535,13
-0.773034,3.23234,-0.0580118,41
-0.764223,3.19797,0.88102,38
-0.766108,3.22577,0.0578722,53
-0.763127,3.21822,0.173337,42
-0.114604,0.483301,-0.0965494,15
-0.76576,3.23183,0.290577,57
-0.755432,3.19322,0.4029,60
-0.142025,0.600805,-0.0758027,12
-0.757893,3.20861,0.522178,70
-0.753135,3.19096,0.637302,66
-0.760571,3.22498,-0.173651,47
-0.752274,3.19229,0.757185,13
-0.762662,3.23891,-0.0580816,41
-0.753499,3.20249,0.881538,36
-0.758029,3.24205,0.0581165,56
-0.750983,3.21697,0.173127,46
-0.121843,0.521935,-0.104182,14
-0.754474,3.23448,0.290577,57
-0.747435,3.20937,0.404606,57
-0.139926,0.601297,-0.0758027,12
-0.743556,3.19777,0.519988,66
-0.74466,3.20504,0.639592,63
-0.751115,3.2354,-0.174069,52
-0.742886,3.20249,0.758985,12
-0.746839,3.22207,-0.0577326,42
-0.742314,3.2051,0.881538,28
-0.745362,3.23883,0.0580118,53
-0.742431,3.23125,0.173755,42
-0.12002,0.522358,-0.104182,14
-0.739611,3.22156,0.289183,55
-0.736227,3.21196,0.404606,58
-0.126304,0.551473,-0.0694655,14
-0.731949,3.19842,0.519675,68
-0.733467,3.20762,0.639592,66
-0.741151,3.24384,-0.174383,50
-0.73474,3.21836,0.762134,6
-0.737365,3.23246,-0.0578722,45
-0.729833,3.20203,0.879985,18
-0.73317,3.23752,0.057942,53
-0.733474,3.24149,0.174174,42
-0.118196,0.522773,-0.104182,14
-0.73012,3.2319,0.28988,57
-0.724573,3.21257,0.404362,59
-0.113905,0.505433,-0.0636158,16
-0.724813,3.21624,0.522178,68
-0.72011,3.20059,0.637684,71
-0.730262,3.24836,-0.174488,51
-0.727771,3.23992,0.766633,1
-0.727517,3.23879,-0.057942,42
-0.720904,3.21197,0.882055,12
-0.721994,3.23798,0.0579071,48
-0.722589,3.24598,0.174279,41
-0.11637,0.523183,-0.104182,14
-0.72013,3.24026,0.290403,56
-0.712626,3.20914,0.403631,58
-0.112228,0.505808,-0.0636158,16
-0.714436,3.22261,0.522804,68
-0.712041,3.21446,0.639973,70
-0.717329,3.24101,-0.173965,50
-0.107722,0.487109,0.115175,8
-0.718795,3.25303,-0.0581514,41
-0.708855,3.21069,0.88102,6
-0.7124,3.24829,0.0580467,53
-0.707838,3.23287,0.173441,40
-0.114635,0.523566,-0.104182,14
-0.710657,3.24847,0.290926,57
-0.703536,3.22131,0.40485,59
-0.114694,0.525591,-0.0660532,15
-0.703184,3.22509,0.522804,67
-0.702486,3.2246,0.6415,55
-0.707709,3.2513,-0.174383,50
-0.705738,3.2477,-0.0580118,45
-0.700102,3.22447,0.884126,2
-0.703165,3.26053,0.0582212,53
-0.69865,3.24509,0.173965,36
-0.112806,0.523963,-0.104182,14
-0.698057,3.24509,0.290403,51
-0.693122,3.22762,0.405337,59
-0.117023,0.545398,-0.0684906,14
-0.691093,3.22366,0.522178,70
-0.692872,3.23471,0.643026,25
-0.696775,3.25571,-0.174488,43
-0.693562,3.24623,-0.057942,38
-0.694086,3.25146,0.890855,0
-0.691364,3.26101,0.0581863,53
-0.689125,3.25325,0.174279,38
-0.110977,0.524353,-0.104182,14
-0.686725,3.24751,0.290403,56
-0.682672,3.23391,0.405825,60
-0.115118,0.545803,-0.0684906,14
-0.680398,3.22593,0.522178,71
-0.683195,3.24479,0.644553,8
-0.684994,3.25616,-0.174383,10
-0.683615,3.25243,-0.0580118,40
-0.67973,3.25937,0.0581165,56
-0.679801,3.26541,0.174802,46
-0.109146,0.524737,-0.104182,14
-0.675387,3.24988,0.290403,56
-0.67275,3.24004,0.406312,59
-0.109275,0.526745,-0.0660532,15
-0.669936,3.23216,0.522804,71
-0.670439,3.23743,0.642645,6
-0.650722,3.14498,-0.168312,4
-0.674685,3.26654,-0.0582212,42
-0.103465,0.501376,0.137174,7
-0.667948,3.25976,0.0580816,47
-0.667197,3.26189,0.174488,38
-0.107405,0.525097,-0.104182,14
-0.666999,3.26382,0.291449,58
-0.659055,3.2307,0.40485,59
-0.112986,0.554354,-0.0694655,14
-0.661015,3.24609,0.524681,71
-0.659525,3.24167,0.643026,3
-0.609106,2.99652,-0.160253,1
-0.664869,3.27672,-0.0583608,39
-0.0971083,0.479014,0.130962,7
-0.658537,3.27188,0.0582561,51
-0.655809,3.2642,0.174488,38
-0.10548,0.525487,-0.104182,14
-0.655423,3.26819,0.291623,55
-0.0989611,0.493905,-0.0797816,64
-0.649336,3.24077,0.405825,60
-0.650066,3.25031,0.524994,72
-0.649946,3.25562,0.645316,1
-0.649521,3.25941,-0.0580118,36
-0.0961902,0.48314,0.131998,7
-0.647704,3.28015,0.0583608,47
-0.645183,3.27039,0.174697,38
-0.103644,0.525852,-0.104182,14
-0.645551,3.27828,0.29232,55
-0.0979989,0.498123,-0.0804073,64
-0.638216,3.24702,0.406312,60
-0.119067,0.605773,-0.0758027,12
-0.636053,3.23899,0.522804,70
-0.657459,3.3542,0.664397,1
-0.636219,3.25184,-0.0578373,32
-0.636443,3.28032,0.0583259,51
-0.634334,3.27251,0.174697,38
-0.1019,0.526192,-0.104182,14
-0.630514,3.25889,0.290403,46
-0.0940971,0.486809,-0.0785301,65
-0.629704,3.26081,0.407775,59
-0.627555,3.25272,0.524681,71
-0.16263,0.845317,-0.0451136,4
-0.625431,3.25393,-0.0578373,30
-0.624063,3.27456,0.0581863,53
-0.625522,3.28844,0.17543,42
-0.100155,0.526527,-0.104182,14
-0.620447,3.26487,0.290752,51
-0.618888,3.26288,0.407775,59
-0.616931,3.25877,0.525307,70
-0.142397,0.753612,-0.040194,13
-0.617033,3.27182,-0.0581165,30
-0.613363,3.28065,0.0582561,50
-0.612939,3.28472,0.175116,37
-0.61176,3.28475,0.29232,55
-0.606043,3.25722,0.4068,60
-0.606274,3.26479,0.525933,68
-0.150822,0.81297,-0.0723393,3
-0.122001,0.658259,0.130132,3
-0.140361,0.758057,-0.0404034,54
-0.609612,3.29558,-0.0585005,24
-0.602056,3.28681,0.0583259,48
-0.599671,3.27701,0.174593,36
-0.0886173,0.484743,-0.0957861,15
-0.601005,3.29079,0.292669,52
-0.5941,3.25942,0.4068,65
-0.595935,3.27272,0.526871,61
-0.144417,0.793889,-0.0705962,21
-0.119703,0.658681,0.130132,3
-0.137,0.754612,-0.040194,61
-0.595962,3.28588,-0.058291,23
-0.593277,3.30059,0.0585354,41
-0.590345,3.29088,0.175221,35
-0.589163,3.29091,0.292495,51
-0.0887686,0.495838,-0.0797816,64
-0.584687,3.26919,0.407775,64
-0.582424,3.26311,0.524994,34
-0.1357,0.761044,-0.0676329,48
-0.117518,0.659075,0.130132,3
-0.133797,0.75113,-0.0399847,82
-0.584839,3.28991,-0.0583259,17
-0.581752,3.30264,0.0585354,42
-0.578853,3.29292,0.175221,33
-0.576524,3.28303,0.291623,55
-0.574641,3.27903,0.40875,59
-0.57069,3.26318,0.524681,9
-0.130429,0.745789,-0.0662384,100
-0.115216,0.659481,0.130132,3
-0.133578,0.765365,-0.0407174,92
-0.57438,3.29784,-0.0584307,17
-0.568519,3.2948,0.0583608,41
-0.568373,3.30083,0.175535,36
-0.567088,3.2968,0.292669,57
-0.563193,3.28101,0.40875,64
-0.562298,3.28267,0.527497,2
-0.124798,0.728565,-0.0646696,100
-0.0950328,0.555382,0.109524,4
-0.130232,0.761889,-0.040508,94
-0.564545,3.30969,-0.0586052,19
-0.558013,3.30268,0.0584656,42
-0.558507,3.31264,0.176058,32
-0.555575,3.29876,0.292669,47
-0.551077,3.27904,0.408262,60
-0.102213,0.608844,-0.0758027,12
-0.553777,3.30215,0.530313,1
-0.123443,0.736878,-0.0653668,47
-0.0892013,0.532475,0.104945,4
-0.123616,0.738701,-0.039252,100
-0.554307,3.31953,-0.0587448,17
-0.546482,3.30461,0.0584656,42
-0.543039,3.29092,0.174802,33
-0.544453,3.30668,0.293192,43
-0.080468,0.489246,-0.0785301,65
-0.540273,3.28487,0.40875,59
-0.100087,0.609197,-0.0758027,12
-0.540327,3.29237,0.528436,1
-0.122159,0.745169,-0.0660641,100
-0.121875,0.745062,-0.039566,100
-0.54336,3.32539,-0.0588146,17
-0.535323,3.31251,0.0585703,40
-0.531867,3.29477,0.174907,36
-0.533223,3.31052,0.293366,55
-0.529489,3.29466,0.409725,65
-0.0904005,0.562504,-0.069953,14
-0.534466,3.32934,0.534067,1
-0.118927,0.741656,-0.0657154,48
-0.0782471,0.488513,0.0961677,10
-0.117696,0.735622,-0.0390426,100
-0.529858,3.31542,-0.0586052,16
-0.524962,3.31822,0.0586401,40
-0.524678,3.32019,0.176163,37
-0.520379,3.30047,0.29232,55
-0.519795,3.30425,0.4107,63
-0.0897688,0.570644,-0.070928,14
-0.124799,0.794233,0.127338,3
-0.115231,0.734173,-0.0650182,49
-0.11711,0.747847,-0.0396707,100
-0.12083,0.772488,-0.0136478,53
-0.512119,3.30808,0.0584307,41
-0.513389,3.32397,0.176268,33
-0.50913,3.3002,0.292146,40
-0.50823,3.30203,0.410212,48
-0.0880781,0.572916,-0.0711717,84
-0.120828,0.786854,0.126086,3
-0.112063,0.730632,-0.0646696,49
-0.112209,0.732438,-0.0388333,100
-0.119039,0.778835,-0.0137525,66
-0.502362,3.32172,0.0586401,41
-0.501488,3.32377,0.176163,27
-0.499403,3.31781,0.293541,26
-0.496998,3.30574,0.410456,21
-0.0846036,0.563405,-0.069953,100
-0.115736,0.771643,0.123583,3
-0.110103,0.73496,-0.0650182,49
-0.108343,0.724943,-0.0384146,100
-0.117797,0.789135,-0.013927,73
-0.490768,3.32749,0.0587099,35
-0.48959,3.32756,0.176268,21
-0.488398,3.32347,0.293889,10
-0.484876,3.30754,0.410456,7
-0.0813878,0.555854,-0.0689781,100
-0.112907,0.772062,0.123583,7
-0.108272,0.741273,-0.0655411,50
-0.105236,0.721364,-0.0382053,100
-0.112887,0.77571,-0.0136827,70
-0.481428,3.34502,0.0589891,25
-0.478542,3.3332,0.176477,7
-0.475083,3.31735,0.293192,3
-0.474735,3.31904,0.411675,3
-0.0794469,0.556135,-0.0689781,100
-0.106026,0.743118,0.11889,12
-0.103998,0.729812,-0.0644952,50
-0.104277,0.733609,-0.0388333,100
-0.110179,0.776099,-0.0136827,86
-0.469499,3.34066,0.0588844,11
-0.468317,3.3407,0.176791,2
-0.46466,3.31883,0.293192,2
-0.462902,3.3147,0.410943,2
-0.078425,0.562294,-0.0697093,100
-0.102743,0.737596,0.117952,12
-0.0992302,0.712375,-0.0629264,59
-0.103347,0.743824,-0.0393566,100
-0.10733,0.774479,-0.0136478,100
-0.45675,3.33435,0.0587448,6
-0.46233,3.38388,0.178989,1
-0.453881,3.32635,0.293715,1
-0.461232,3.38907,0.419962,1
-0.0786006,0.5783,-0.0716592,84
-0.100168,0.73795,0.117952,8
-0.097279,0.716665,-0.0632751,72
-0.101017,0.74616,-0.0394613,38
-0.102753,0.760977,-0.0134034,100
-0.445636,3.33989,0.0588146,3
-0.0776233,0.586443,-0.0726341,55
-0.0925365,0.699112,0.111694,9
-0.0924271,0.699224,-0.0617063,114
-0.0968461,0.734627,-0.0388333,56
-0.0989239,0.751401,-0.0132289,100
-0.438428,3.37109,0.0593382,1
-0.0772017,0.59851,-0.0740966,40
-0.0890859,0.691594,0.110443,4
-0.0927821,0.721279,-0.0636237,99
-0.0923734,0.719096,-0.0379959,34
-0.0998579,0.77951,-0.0137176,82
-0.440711,3.4837,0.0612928,1
-0.0726414,0.579079,-0.0716592,42
-0.0724308,0.578217,0.0922963,6
-0.0906372,0.72356,-0.063798,58
-0.0906056,0.72536,-0.0383099,100
-0.0961474,0.771917,-0.013578,51
-0.0684579,0.561594,-0.0694655,29
-0.0873886,0.717938,-0.0632751,100
-0.0885545,0.729637,-0.0385193,91
-0.0908095,0.75041,-0.013194,40
-0.0622972,0.526346,-0.0650782,15
-0.0851163,0.720218,-0.0634494,83
-0.0855394,0.725975,-0.0383099,83
-0.0865566,0.73682,-0.0129497,28
-0.0589277,0.508519,0.00893563,11
-0.0577423,0.502894,-0.0621534,16
-0.08124,0.708634,-0.0624035,38
-0.080737,0.706425,-0.0372632,56
-0.0753817,0.661618,-0.0116233,11
-0.0653447,0.588121,-0.0517705,12
-0.0732137,0.661045,-0.0348557,9
-0.0628142,0.585834,-0.0308782,11
0.13713,0.516098,-0.1038,14
0.143231,0.516475,-0.104182,14
0.145123,0.515947,-0.104182,14
0.146743,0.515489,-0.104182,14
0.139242,0.476787,-0.0965494,15
0.145802,0.474822,-0.0965494,15
0.166246,0.509534,-0.104182,14
0.159892,0.484888,-0.117874,11
0.161583,0.484327,-0.117874,11
0.16833,0.482024,-0.117874,11
0.169795,0.463737,0.0782172,45
0.172784,0.466846,0.078843,52
0.182049,0.471791,0.0800945,36
0.186407,0.47033,0.00883092,69
0.187961,0.463588,0.0614222,59
0.18643,0.45615,-0.0957861,15
0.186536,0.449672,0.130445,23
0.196374,0.471295,-0.117874,11
0.192583,0.459709,0.133551,22
0.208127,0.493908,-0.104182,14
0.19502,0.460779,0.134068,22
0.20985,0.493179,-0.104182,14
2.08943,4.90335,0.654438,2
1.51919,3.55653,-0.0675059,1
0.192831,0.451213,0.13148,23
0.201832,0.470455,0.00893563,11
2.0797,4.8453,0.276334,1
0.211484,0.49248,-0.104182,14
2.09047,4.86571,0.46332,2
0.195801,0.455521,-0.0785301,9
2.0947,4.87087,0.651026,3
1.58808,3.69281,-0.493571,1
2.11887,4.92469,0.849126,3
1.54323,3.58505,-0.341476,3
1.50873,3.50156,-0.199819,2
1.53098,3.55148,-0.0675059,1
0.196621,0.455893,0.133033,15
1.55403,3.58944,0.0682738,5
2.09025,4.82335,0.275497,4
0.213116,0.491776,-0.104182,14
2.09154,4.82402,0.460008,5
1.53368,3.53565,-0.610407,1
2.10689,4.85479,0.649807,9
2.13683,4.91908,0.849439,6
1.55811,3.58512,-0.341999,11
1.52671,3.51119,-0.200656,6
1.54336,3.54611,-0.0675059,1
0.204382,0.469373,0.137174,14
1.62582,3.71958,0.0708568,3
2.10547,4.81236,0.275287,10
2.12679,4.85647,0.463843,12
1.51809,3.46487,-0.599144,1
2.12861,4.85831,0.65127,16
1.99477,4.55069,-0.610078,1
2.15954,4.92425,0.851629,9
1.56902,3.57601,-0.34165,16
1.55081,3.53117,-0.202121,15
1.54528,3.5169,-0.0670521,9
0.199799,0.454509,0.133033,15
1.69274,3.83434,0.0731605,9
2.13113,4.82508,0.276439,13
2.13728,4.83444,0.462448,15
1.53497,3.47039,-0.601021,7
2.16166,4.88497,0.655901,27
2.00501,4.52882,-0.608128,12
2.19511,4.95823,0.858825,11
1.57423,3.55412,-0.340082,22
2.23109,5.03473,1.07044,1
1.56475,3.52939,-0.202331,33
1.55997,3.51697,-0.0671569,10
0.19825,0.446746,0.130962,15
1.69161,3.79765,0.0725671,15
2.16097,4.8468,0.278113,24
1.65634,3.71323,-0.790331,2
2.16227,4.84514,0.464191,28
1.54888,3.47069,-0.60196,11
2.18513,4.89409,0.658094,31
2.02325,4.5294,-0.609103,20
2.23336,4.99742,0.86696,11
1.58988,3.55588,-0.340779,32
2.24216,5.01476,1.06777,3
1.56013,3.48772,-0.200237,36
1.58777,3.54618,-0.06782,15
0.199019,0.444288,0.130445,15
1.70486,3.79172,0.0725671,27
2.17706,4.8374,0.278009,19
1.62836,3.6182,-0.77125,2
2.18568,4.8543,0.46576,38
1.55612,3.45446,-0.600083,17
2.20139,4.88462,0.657851,42
2.04231,4.52955,-0.610078,28
2.25973,5.0094,0.870401,14
1.60474,3.55575,-0.341302,45
2.26288,5.01406,1.06929,9
1.56408,3.46405,-0.199191,50
1.60343,3.5479,-0.0679597,28
0.199772,0.44183,0.129927,15
1.71809,3.78575,0.0725671,38
2.2055,4.85523,0.279474,36
1.64973,3.63008,-0.775066,2
2.21583,4.87346,0.468375,49
1.57859,3.47031,-0.603837,31
2.21349,4.86607,0.656388,47
2.06222,4.53142,-0.611297,44
2.28866,5.02666,0.874782,17
1.62127,3.5592,-0.342173,55
2.29264,5.03074,1.07464,13
1.5809,3.46738,-0.199714,56
2.31302,5.07077,1.28672,1
1.61996,3.55138,-0.0681342,36
0.202918,0.444645,0.130962,15
1.72695,3.76852,0.0723577,6
2.22909,4.86203,0.280311,34
1.65094,3.59932,-0.769724,2
2.24778,4.89829,0.471513,57
1.59728,3.47914,-0.60634,42
2.23877,4.87416,0.658582,32
2.08383,4.53683,-0.613003,45
2.30702,5.02043,0.875095,19
1.60539,3.49197,-0.336247,43
2.32167,5.04768,1.07998,15
1.61805,3.51627,-0.202854,77
2.3176,5.03652,1.27997,3
1.63736,3.5566,-0.0683436,36
0.210934,0.457972,0.135104,15
2.2387,4.84277,0.093126,1
2.24856,4.86186,0.28073,34
1.65956,3.5867,-0.768197,2
2.26904,4.90166,0.472558,57
1.61213,3.48099,-0.607592,50
2.25826,4.87391,0.659557,25
2.10888,4.5515,-0.615928,49
2.33528,5.03784,0.879475,19
1.61444,3.4812,-0.335724,65
2.34253,5.04886,1.08189,18
1.65156,3.55799,-0.205576,77
2.33675,5.03411,1.28132,6
1.65757,3.56929,-0.0686927,37
2.26827,4.86432,0.0936845,39
2.27648,4.87972,0.282196,40
1.67394,3.58651,-0.769342,4
2.28949,4.90313,0.47343,58
1.62534,3.47921,-0.608217,55
2.27357,4.8646,0.659313,13
2.13236,4.56247,-0.618365,48
2.36202,5.05155,0.883229,17
1.63273,3.49027,-0.337118,63
2.36592,5.05529,1.08494,22
1.66759,3.56153,-0.206099,66
2.36996,5.06163,1.29032,11
1.68297,3.59275,-0.0692511,39
2.29205,4.87306,0.0939987,51
2.30201,4.89202,0.283347,43
1.69168,3.59337,-0.772013,4
2.31253,4.90993,0.474824,56
1.64781,3.49703,-0.612285,60
2.29476,4.8678,0.660776,11
2.15256,4.56615,-0.619828,48
2.38971,5.06691,0.887296,19
2.38937,5.06162,1.08799,34
1.68365,3.56501,-0.206622,100
2.39339,5.06784,1.29392,13
1.70854,3.61608,-0.0698096,63
2.40412,5.08596,1.50736,1
2.3159,4.87727,0.094243,48
2.32763,4.89758,0.284184,37
1.70399,3.58538,-0.771632,6
2.35276,4.94821,0.479357,58
1.66486,3.49989,-0.613849,55
2.32453,4.88446,0.664188,9
1.67513,3.51831,-0.478459,33
2.42019,5.08088,0.891364,19
2.19851,4.61341,-0.447109,30
2.42142,5.08118,1.0941,31
1.69499,3.55521,-0.206413,100
2.41787,5.06916,1.29662,13
1.71897,3.60227,-0.06967,64
2.42696,5.08367,1.50943,2
2.34501,4.8944,0.0947317,49
2.34817,4.89663,0.284603,36
1.71798,3.58088,-0.772013,10
2.38036,4.95931,0.481274,57
1.68623,3.51157,-0.616978,57
2.34243,4.8781,0.664432,21
1.69084,3.5196,-0.479434,72
2.43791,5.0724,0.891364,19
2.22496,4.62726,-0.449201,34
2.45024,5.0935,1.09868,31
1.70974,3.55258,-0.206622,100
2.44573,5.07958,1.30157,14
1.73153,3.59625,-0.06967,67
2.45559,5.09779,1.51616,6
2.37076,4.90198,0.0950458,51
2.37654,4.90956,0.285859,37
1.72961,3.57309,-0.771632,14
2.39679,4.94918,0.4811,60
1.70537,3.51988,-0.619481,57
2.36722,4.88377,0.666382,28
1.70027,3.50623,-0.478459,61
2.47028,5.09187,0.89637,19
2.24718,4.63201,-0.450421,32
2.47401,5.09728,1.10135,36
2.47281,5.09029,1.30652,20
2.47933,5.09918,1.51927,8
2.38961,4.89726,0.0951156,51
2.40769,4.92995,0.287534,36
1.73862,3.55998,-0.770105,12
2.42455,4.96226,0.483191,65
1.72111,3.52101,-0.620732,57
2.38687,4.88083,0.667113,36
1.72471,3.52524,-0.481871,54
2.49846,5.10451,0.900124,19
2.27385,4.64561,-0.452513,34
2.49869,5.10272,1.1044,36
2.30037,4.69563,-0.274031,35
2.50772,5.11663,1.31551,28
2.40693,4.90883,-0.0954298,31
2.50647,5.10957,1.52496,11
2.41641,4.90863,0.0954996,54
2.43373,4.94164,0.288685,34
1.75277,3.55741,-0.770868,14
2.44802,4.96628,0.484412,63
1.74038,3.52915,-0.623235,55
2.42146,4.90807,0.671988,29
2.27822,4.61572,-0.632014,50
2.52762,5.12099,0.904504,19
2.30064,4.65908,-0.454604,38
2.52432,5.10981,1.10784,36
2.3194,4.69294,-0.274345,56
2.53506,5.12706,1.32046,29
2.42763,4.90978,-0.0956043,37
2.5294,5.11336,1.52859,17
2.44868,4.93283,0.0961279,48
2.45719,4.94564,0.289418,36
1.76606,3.55303,-0.77125,10
2.47332,4.97376,0.48598,57
1.76087,3.54105,-0.626364,60
2.43507,4.89468,0.671256,47
2.29529,4.61169,-0.632502,52
2.5578,5.13689,0.908884,21
2.32932,4.67599,-0.457045,25
2.55613,5.13129,1.11432,36
2.34564,4.70668,-0.275601,52
2.55466,5.12386,1.32181,29
2.45993,4.9317,-0.0961977,34
2.55931,5.1287,1.53583,18
2.48469,4.9618,0.0968609,48
2.4986,4.98524,0.292244,51
1.77255,3.53662,-0.76896,8
2.49784,4.98156,0.487549,51
1.78031,3.549,-0.628867,57
2.46995,4.92164,0.676131,32
2.32295,4.62671,-0.635671,57
2.57749,5.13147,0.90951,19
2.35197,4.68249,-0.458439,27
2.58813,5.1504,1.12043,36
2.37192,4.71809,-0.276753,49
2.58479,5.13928,1.32811,30
2.47983,4.92844,-0.0963024,38
2.58588,5.13699,1.54101,26
2.51281,4.97452,0.0972797,48
2.5232,4.99075,0.293081,43
1.78488,3.53041,-0.76896,10
2.52061,4.98348,0.488595,49
1.8016,3.56039,-0.631995,52
2.49697,4.93247,0.678812,47
2.35882,4.65754,-0.641033,41
2.6061,5.14358,0.913265,19
2.37461,4.68669,-0.459659,29
2.61674,5.16235,1.12501,36
2.40915,4.75075,-0.27916,57
2.61506,5.15456,1.33441,29
2.50516,4.9358,-0.0966165,32
2.61429,5.1486,1.54722,26
2.54287,4.99066,0.0977684,46
2.54245,4.98769,0.293395,34
1.79363,3.51716,-0.767434,8
2.55157,5.00127,0.49121,56
2.52411,4.94317,0.681493,39
2.37867,4.65635,-0.642008,43
2.64112,5.17009,0.919522,19
2.40274,4.70143,-0.461925,25
2.63743,5.15843,1.12615,36
2.42754,4.74587,-0.279369,50
2.64369,5.16621,1.33981,28
2.53336,4.95061,-0.0970703,36
2.63839,5.15366,1.55136,26
2.57676,5.01599,0.0984316,49
2.57629,5.01076,0.29528,43
1.81128,3.52135,-0.769724,8
2.58542,5.02422,0.494347,60
2.20903,4.29279,-0.764652,2
2.56593,4.98419,0.688318,31
2.40683,4.67314,-0.64542,44
2.66548,5.17314,0.921712,19
2.43739,4.72844,-0.465412,21
2.67071,5.18106,1.13302,31
2.53847,4.9224,-0.290255,40
2.67331,5.18166,1.34611,27
2.56896,4.97728,-0.0977684,40
2.66966,5.17016,1.55913,18
2.60162,5.02117,0.0987108,48
2.59468,5.00351,0.295384,40
1.82114,3.51184,-0.76896,10
2.61583,5.04215,0.496962,51
2.22855,4.29382,-0.766216,4
2.61899,5.04391,0.697824,51
2.43044,4.6788,-0.64737,23
2.69992,5.19535,0.927344,17
2.58531,4.97269,-0.490338,40
2.70146,5.19609,1.13837,34
2.56208,4.92592,-0.290988,41
2.70128,5.19132,1.35106,29
2.59186,4.97892,-0.0979778,28
2.70108,5.18652,1.56689,19
2.62746,5.02801,0.099025,46
1.59081,3.04294,-0.792728,1
2.63712,5.04221,0.29821,36
1.83036,3.49819,-0.767434,8
2.64631,5.05547,0.499228,60
2.25161,4.29962,-0.768719,8
2.65867,5.07695,0.703674,47
2.47163,4.71777,-0.653951,5
2.72904,5.20689,0.931098,37
2.61098,4.97952,-0.491907,42
2.7369,5.21745,1.14524,54
2.59961,4.95363,-0.293186,42
2.73297,5.20554,1.35735,47
2.61759,4.98578,-0.098292,30
2.73534,5.20784,1.57621,26
2.65427,5.03427,0.0993391,48
1.61104,3.05433,-0.797227,1
2.66589,5.05417,0.299466,36
1.83707,3.48136,-0.765144,8
2.67231,5.06206,0.500797,55
2.26845,4.29523,-0.769345,9
2.71065,5.13035,0.712448,55
2.54086,4.80696,-0.6676,12
2.75366,5.20956,0.933288,21
2.63021,4.97389,-0.492256,29
2.76061,5.21828,1.14753,31
2.63557,4.97983,-0.29528,42
2.75659,5.2063,1.36005,29
2.65089,5.00665,-0.0988853,42
2.76073,5.21192,1.58035,21
2.68315,5.0484,0.0997929,51
1.5864,2.98358,-0.78013,1
2.69477,5.06599,0.300722,39
1.85474,3.48532,-0.767434,8
2.70588,5.0826,0.50376,56
2.28268,4.28768,-0.769345,9
2.74538,5.15462,0.717079,57
2.59039,4.86158,-0.676375,24
2.78856,5.23129,0.93892,19
2.66349,4.99457,-0.495219,2
2.79083,5.23335,1.15287,33
2.64831,4.96402,-0.294861,40
2.79403,5.23495,1.36995,28
2.68624,5.03089,-0.0995485,46
2.79438,5.23122,1.58915,18
2.6847,5.00904,0.0991995,40
1.60049,2.9849,-0.78193,1
2.73226,5.09352,0.302921,60
1.87093,3.4878,-0.769342,8
2.71989,5.06833,0.503237,47
2.28922,4.26402,-0.766529,5
2.78026,5.17649,0.721467,57
2.65902,4.94868,-0.689781,50
2.8227,5.2511,0.944239,17
2.68192,4.98922,-0.495568,29
2.82024,5.24433,1.15745,33
2.67508,4.97233,-0.295908,43
2.82245,5.24404,1.3749,33
2.71327,5.03909,-0.0998976,34
2.8227,5.24014,1.59484,16
2.71928,5.0313,0.0998278,39
1.6109,2.97929,-0.78193,1
2.72247,5.033,0.299885,37
1.87375,3.46398,-0.765526,10
2.75084,5.08334,0.505678,31
2.30503,4.25774,-0.766842,2
2.81155,5.19119,0.724879,55
2.71316,5.00744,-0.699286,48
2.85042,5.25858,0.947367,19
2.70787,4.99559,-0.497136,29
2.8535,5.26206,1.16355,33
2.71338,5.00159,-0.29821,40
2.84817,5.24786,1.3785,29
2.73561,5.03837,-0.100072,38
2.85389,5.25402,1.60209,16
2.76266,5.06918,0.10077,76
1.61289,2.95825,-0.777881,2
2.77158,5.08133,0.303339,36
1.88771,3.46087,-0.766289,10
2.7848,5.10344,0.508641,66
2.31326,4.23753,-0.764652,2
2.86676,5.24929,0.734385,31
2.74966,5.03278,-0.704161,61
2.87634,5.26247,0.94987,17
2.72911,4.9931,-0.497834,29
2.88409,5.27446,1.16851,31
2.88331,5.26866,1.3866,26
2.77527,5.06913,-0.100875,96
2.8852,5.26775,1.60934,16
2.74567,4.99642,0.0995136,15
1.62884,2.96285,-0.78058,2
2.81818,5.12413,0.306479,40
1.89599,3.44738,-0.764763,10
2.77282,5.03957,0.503237,23
2.3328,4.23809,-0.766216,2
2.90709,5.27925,0.739991,24
2.74231,4.97794,-0.697824,17
2.90614,5.27316,0.953625,19
2.75903,5.00623,-0.5001,31
2.91386,5.28499,1.17309,30
2.91392,5.28074,1.39245,27
2.76782,5.0139,-0.0999674,18
2.90918,5.26779,1.61244,17
2.78926,5.03403,0.100456,25
1.64201,2.96226,-0.78193,3
2.86026,5.15793,0.309096,18
1.91182,3.44761,-0.766289,12
2.79329,5.03509,0.50376,45
2.34662,4.22819,-0.765903,2
2.93899,5.29336,0.743403,23
2.70665,4.87289,-0.684418,58
2.9418,5.29406,0.959256,16
2.761,4.9687,-0.497311,4
2.94088,5.29023,1.17653,27
2.76658,4.97464,-0.298315,22
2.94466,5.29268,1.3983,26
2.83101,5.08633,-0.101608,38
2.9454,5.28967,1.62228,17
2.78633,4.9876,0.099723,34
1.63522,2.92589,-0.773832,3
2.80027,5.00845,0.300722,22
1.9296,3.45119,-0.768579,10
2.95966,5.29135,0.53043,26
2.36233,4.2217,-0.766216,2
2.96812,5.30213,0.746084,22
2.8575,5.10243,-0.718054,57
2.97667,5.31306,0.964575,19
2.80852,5.01292,-0.502714,22
2.97468,5.30734,1.18263,27
2.8103,5.01199,-0.301141,56
2.97455,5.30276,1.40369,26
2.7959,4.98225,-0.099723,44
2.97425,5.29789,1.62797,16
2.80667,4.98308,0.0998278,48
1.65691,2.94054,-0.77923,3
2.98839,5.30138,0.318935,24
1.93778,3.43759,-0.767052,10
2.99867,5.31744,0.53409,31
2.37123,4.2031,-0.764339,2
2.99734,5.31075,0.748765,22
2.89188,5.12181,-0.722198,90
3.00589,5.32155,0.968017,19
2.79954,4.95624,-0.498008,24
3.00768,5.32256,1.18836,31
2.9988,5.30252,1.40639,25
2.8054,4.95853,-0.0994438,46
3.00985,5.31774,1.63729,17
3.00969,5.30016,0.10639,38
1.67294,2.9449,-0.78193,6
3.01576,5.30654,0.319877,46
1.94782,3.4274,-0.766289,10
3.02903,5.32772,0.536182,35
2.39174,4.2051,-0.766216,2
3.03451,5.33303,0.753396,25
2.91171,5.11513,-0.722685,81
3.03324,5.32648,0.970832,19
2.88091,5.05898,-0.509338,36
3.04179,5.33932,1.19446,30
2.86104,5.02001,-0.302816,61
3.03274,5.31911,1.41359,27
2.97626,5.21794,-0.104854,26
3.04276,5.33237,1.64505,15
3.02022,5.27574,0.106111,48
1.6803,2.93397,-0.78058,5
3.03526,5.29772,0.319982,67
1.96368,3.42739,-0.767815,10
3.04067,5.30502,0.534962,53
2.41623,4.21386,-0.769345,2
3.06793,5.34824,0.757052,23
2.92362,5.09461,-0.721223,78
3.0646,5.33813,0.9749,17
2.82018,4.91239,-0.495568,27
3.07801,5.35932,1.20133,27
2.88352,5.01865,-0.303339,68
3.06488,5.33215,1.41989,25
2.99845,5.21446,-0.104994,60
3.07292,5.34181,1.65127,12
3.01563,5.22533,0.105308,50
1.68761,2.92302,-0.77923,5
3.04774,5.27671,0.319354,73
1.97759,3.42392,-0.768579,10
3.05419,5.28574,0.53409,65
2.41709,4.18146,-0.764965,2
3.09552,5.35296,0.759246,25
2.93741,5.0775,-0.720248,73
3.09905,5.35475,0.979906,17
2.91716,5.04047,-0.509512,47
3.10654,5.36553,1.20515,28
2.93606,5.06905,-0.307003,59
3.10595,5.36019,1.43024,28
3.02365,5.21607,-0.105238,82
3.10317,5.3511,1.65748,12
3.03586,5.21823,0.105378,58
1.69584,2.91375,-0.778331,6
3.06622,5.2683,0.319459,69
1.98756,3.4136,-0.767815,10
3.0656,5.263,0.53287,54
2.43067,4.17129,-0.764652,4
3.07719,5.27867,0.750228,52
2.94823,5.05744,-0.718785,63
3.14067,5.3854,0.987414,17
2.94176,5.0423,-0.510733,63
3.1391,5.37839,1.21049,30
2.94065,5.03635,-0.305642,57
3.13844,5.37511,1.43699,25
3.04396,5.21119,-0.105343,94
3.13649,5.36747,1.66576,13
3.05416,5.20986,0.105413,64
1.70155,2.90138,-0.776531,6
3.07357,5.24088,0.318412,70
2.00483,3.41715,-0.770105,10
3.08606,5.25796,0.533393,59
2.44749,4.16832,-0.76559,4
3.08463,5.25132,0.74779,51
2.95292,5.0271,-0.715861,59
3.16852,5.39199,0.990543,17
2.95342,5.02393,-0.509861,63
3.16886,5.38826,1.21507,28
2.95632,5.02485,-0.305537,43
3.16712,5.38315,1.44194,26
3.06832,5.21313,-0.105587,100
3.16996,5.38368,1.67404,15
3.07752,5.21003,0.105622,61
1.71513,2.90244,-0.778331,6
3.11421,5.26794,0.320715,100
2.00416,3.3902,-0.765526,10
3.12174,5.27856,0.536531,78
2.44923,4.13978,-0.761836,6
3.1182,5.2684,0.75169,46
2.95528,4.99114,-0.712205,66
3.19336,5.39109,0.99242,17
2.96295,5.00211,-0.508641,72
3.20873,5.41488,1.22347,28
2.96278,4.99783,-0.304491,61
3.19484,5.38715,1.44599,24
3.08037,5.19207,-0.105378,64
3.20648,5.40248,1.68336,15
3.11103,5.22503,0.106146,81
1.72924,2.90313,-0.78013,6
3.13974,5.26905,0.321447,75
2.02,3.38993,-0.767052,10
3.14422,5.27448,0.537228,78
2.45254,4.11254,-0.758394,11
3.21692,5.39216,0.770946,25
2.97573,4.9859,-0.712936,71
3.22938,5.40874,0.997739,19
2.96712,4.9695,-0.506375,60
3.23969,5.42387,1.22805,24
2.97816,4.98403,-0.304281,61
3.23662,5.41443,1.45633,26
3.0954,5.17614,-0.105273,78
3.23524,5.40783,1.68854,14
3.10764,5.17813,0.105413,50
1.74137,2.90042,-0.78103,6
3.15297,5.2495,0.320924,73
2.03384,3.38622,-0.767815,10
3.15235,5.2464,0.535485,59
2.45772,4.08872,-0.755579,20
3.26539,5.43023,0.778014,23
2.98698,4.96528,-0.711473,71
3.26861,5.43129,1.004,19
2.98034,4.95228,-0.505678,63
3.27177,5.4344,1.23301,27
2.98832,4.96163,-0.303549,69
3.26858,5.4248,1.46218,25
3.1021,5.14647,-0.104889,76
3.27405,5.42959,1.69889,13
3.12673,5.16896,0.105447,50
1.73938,2.87431,-0.775631,6
3.15886,5.21796,0.319668,67
2.05277,3.39086,-0.770487,10
3.16032,5.21832,0.533742,57
2.4771,4.08856,-0.757143,41
3.29462,5.43577,0.780451,22
2.99606,4.94124,-0.709523,75
3.30599,5.45025,1.00963,19
2.98934,4.92822,-0.504283,60
3.30498,5.44644,1.23835,27
2.99319,4.93068,-0.302293,69
3.30873,5.44833,1.47163,26
3.10135,5.10484,-0.104261,42
3.30602,5.43959,1.70562,11
3.12082,5.11875,0.104645,57
1.74737,2.8649,-0.774731,6
3.14391,5.15459,0.316423,66
2.05641,3.37027,-0.767434,10
3.17541,5.20215,0.533219,58
2.49959,4.09338,-0.759646,59
3.33427,5.45812,0.785326,23
3.00087,4.91043,-0.706599,76
3.34156,5.46791,1.01495,17
3.00237,4.91096,-0.503586,63
3.34651,5.47172,1.24675,24
3.00621,4.91339,-0.301874,69
3.3379,5.45337,1.47613,22
3.05667,4.9939,-0.102201,58
3.34422,5.46155,1.71597,13
3.13254,5.09985,0.10447,55
1.76094,2.86573,-0.776531,6
3.15037,5.12487,0.315272,66
2.07022,3.36641,-0.768197,10
3.17789,5.16558,0.530604,59
2.51936,4.09516,-0.761523,63
3.37003,5.47577,0.78947,25
3.00881,4.88693,-0.704649,76
3.37305,5.47639,1.0187,17
3.01322,4.89027,-0.50254,60
3.38214,5.489,1.25323,24
3.0183,4.89659,-0.301455,72
3.37438,5.47213,1.48423,22
3.06358,4.96618,-0.101852,66
3.3795,5.47615,1.72425,12
1.59804,2.58241,-0.813727,1
3.15874,5.10249,0.104749,50
1.77709,2.8695,-0.77923,6
3.18087,5.13422,0.316528,52
2.08758,3.36954,-0.770487,8
3.18555,5.13978,0.529035,56
2.54197,4.09977,-0.764026,64
3.40901,5.49603,0.794101,22
3.02794,4.87977,-0.705136,73
3.40986,5.49312,1.02402,21
3.01681,4.85993,-0.500448,60
3.41682,5.50218,1.25896,24
3.03221,4.88094,-0.301141,67
3.41506,5.49508,1.49367,24
3.07034,4.93848,-0.101503,66
3.4139,5.48892,1.73202,11
1.58047,2.5342,-0.800269,1
3.19665,5.12366,0.105413,56
1.78503,2.85998,-0.778331,6
3.21569,5.15019,0.318203,55
2.1014,3.36557,-0.77125,8
3.22669,5.1658,0.53287,56
2.56464,4.10427,-0.766529,53
3.44606,5.51271,0.798244,36
3.03654,4.85571,-0.703186,80
3.4573,5.5264,1.03247,45
3.02742,4.83924,-0.499402,76
3.45475,5.52018,1.26583,54
3.46836,5.53762,1.50852,43
3.08332,4.92095,-0.101364,90
3.4515,5.50644,1.74133,13
1.57902,2.51231,-0.795092,1
3.22303,5.12602,0.105692,53
1.78878,2.84383,-0.775631,6
3.24961,5.16429,0.319773,49
2.11419,3.35987,-0.771632,6
3.267,5.18991,0.536531,57
2.58526,4.10533,-0.768406,38
3.47481,5.51576,0.800438,54
3.05135,4.84172,-0.702699,80
3.47973,5.51931,1.03341,57
3.05385,4.84381,-0.500971,54
3.46667,5.49646,1.26316,76
3.02678,4.79715,-0.297268,46
3.4783,5.51065,1.50447,61
3.0962,4.90339,-0.101224,62
3.4738,5.49926,1.74289,19
1.57745,2.49046,-0.789916,1
3.20879,5.06406,0.104645,52
1.80287,2.84415,-0.777431,7
3.2858,5.18159,0.321552,51
2.1217,3.34584,-0.770105,8
3.3011,5.20371,0.539145,54
2.60169,4.09962,-0.769032,26
3.48446,5.48852,0.798244,43
3.07355,4.83942,-0.703917,50
3.48414,5.48379,1.02903,36
3.08143,4.84994,-0.502714,29
3.47846,5.47273,1.26048,33
3.0853,4.85229,-0.30135,50
3.4766,5.46559,1.49547,30
3.1337,4.92461,-0.101887,76
3.48779,5.47895,1.7403,15
1.57782,2.47191,-0.785775,2
3.23076,5.05957,0.104784,59
1.81383,2.83949,-0.777881,7
3.32322,5.20038,0.323436,52
2.13442,3.34007,-0.770487,6
3.33856,5.22238,0.542283,52
2.62663,4.10715,-0.772161,15
3.49825,5.46796,0.797026,33
3.10434,4.85039,-0.707086,48
3.49368,5.45662,1.02621,29
3.1123,4.86097,-0.50498,18
3.49966,5.46386,1.26125,39
3.11084,4.85494,-0.302188,43
3.48935,5.44358,1.49278,33
3.15627,4.92206,-0.102062,86
3.49542,5.44885,1.73461,16
1.57598,2.45014,-0.780598,2
3.23541,5.02808,0.104365,52
1.82057,2.82822,-0.776531,7
3.36298,5.22233,0.32553,57
2.14181,3.32599,-0.76896,6
3.37512,5.23916,0.545246,54
2.64095,4.09796,-0.772161,11
3.51301,5.44904,0.796051,32
3.14277,4.87289,-0.711961,48
3.50307,5.42945,1.02339,28
3.14113,4.86849,-0.506898,18
3.51232,5.44171,1.25896,39
3.14943,4.87761,-0.304281,43
3.50727,5.42973,1.49233,34
3.17017,4.90597,-0.101957,54
3.49239,5.40255,1.72373,20
1.58348,2.44301,-0.780081,2
3.24315,5.00166,0.104051,51
1.83043,2.82185,-0.776531,6
3.40076,5.24072,0.327414,57
2.15341,3.3185,-0.76896,6
3.41616,5.26245,0.548907,56
2.64986,4.08043,-0.770596,9
3.5212,5.4201,0.793613,35
3.18789,4.90517,-0.718298,45
3.51877,5.41222,1.02246,33
3.17766,4.88756,-0.510035,22
3.51524,5.40473,1.25323,37
3.17733,4.88333,-0.305328,40
3.5177,5.40439,1.48873,32
3.2091,4.92839,-0.102655,54
3.51123,5.39033,1.72373,20
1.60467,2.45687,-0.786292,3
3.24747,4.97022,0.103632,55
1.84027,2.81544,-0.776531,7
3.43652,5.25556,0.329089,51
2.17358,3.32411,-0.772013,8
3.4476,5.2705,0.550999,56
2.66625,4.07446,-0.771222,9
3.52488,5.38452,0.790201,37
3.21804,4.91394,-0.721223,43
3.53547,5.3966,1.02183,31
3.21326,4.90477,-0.512999,20
3.52548,5.37929,1.25018,37
3.2075,4.89225,-0.306584,40
3.52799,5.37904,1.48513,34
3.23396,4.92886,-0.102899,50
3.51942,5.36189,1.71856,20
1.61324,2.45126,-0.786292,3
3.26919,4.96553,0.103772,55
1.8458,2.80249,-0.774731,6
3.46914,5.26522,0.330449,46
2.17977,3.3083,-0.770105,6
3.49449,5.30168,0.555531,54
2.67937,4.06348,-0.770909,8
3.53491,5.35893,0.788251,37
3.54123,5.36445,1.01808,29
3.25561,4.93177,-0.517008,15
3.5399,5.3604,1.24865,39
3.24657,4.91435,-0.308677,42
3.53063,5.3423,1.47838,39
3.28093,4.96258,-0.103842,56
3.53279,5.34151,1.71597,19
1.61645,2.43756,-0.783704,5
3.31083,4.99075,0.10454,56
1.85665,2.79766,-0.775181,7
3.50959,5.28635,0.332543,46
2.1837,3.28922,-0.767434,6
3.53171,5.31767,0.558494,53
2.69572,4.05739,-0.771535,8
3.55139,5.34325,0.787763,37
3.28524,4.94094,-0.728535,22
3.54681,5.33231,1.01432,30
3.28936,4.94526,-0.519623,18
3.55098,5.33657,1.24598,42
3.28031,4.92793,-0.310248,41
3.5471,5.3267,1.47748,37
3.30932,4.96774,-0.104191,62
3.54713,5.32272,1.7139,21
1.62065,2.42548,-0.781634,6
3.34045,4.99745,0.104924,47
1.87073,2.79764,-0.776981,7
3.56466,5.32885,0.335997,39
2.20062,3.28974,-0.769342,6
3.55357,5.31027,0.559017,41
2.70767,4.04468,-0.770909,5
3.56119,5.31763,0.785814,34
3.31241,4.94429,-0.730729,8
3.5566,5.30677,1.01182,32
3.31769,4.9503,-0.521366,13
3.56303,5.31436,1.24369,42
3.32308,4.9546,-0.312655,38
3.55698,5.30134,1.47388,37
3.34893,4.98937,-0.104889,76
3.54953,5.28625,1.70614,20
1.62803,2.4182,-0.781116,7
3.37128,5.00566,0.105343,47
1.88267,2.79432,-0.777881,7
3.57431,5.30313,0.33516,28
2.21429,3.28529,-0.770105,6
3.56986,5.29453,0.558668,34
2.71294,4.0221,-0.768406,2
3.57195,5.29365,0.784107,39
3.32965,4.93269,-0.730729,3
3.57179,5.28942,1.01088,34
3.35613,4.97006,-0.524678,16
3.56287,5.27423,1.23721,45
3.35825,4.96945,-0.31433,34
3.5711,5.28244,1.47208,37
3.39321,5.0174,-0.105727,54
3.56471,5.26902,1.70458,21
1.64188,2.4205,-0.783704,8
3.58748,5.28675,0.111521,25
1.88365,2.77483,-0.774282,7
3.58158,5.2741,0.334113,30
2.23346,3.28891,-0.772776,6
3.58161,5.27215,0.557622,28
2.72474,4.00934,-0.76778,2
3.57367,5.25652,0.780451,37
3.35466,4.93253,-0.732435,0
3.58467,5.26875,1.00932,30
3.39027,4.98302,-0.527292,16
3.57795,5.25689,1.23606,40
3.38906,4.9775,-0.315586,32
3.57855,5.25383,1.46758,39
3.43209,5.03693,-0.10639,48
3.57438,5.24378,1.70044,21
1.65686,2.42432,-0.78681,7
3.59575,5.25934,0.111207,23
1.89553,2.77146,-0.775181,7
3.58869,5.24508,0.333066,31
2.23606,3.26813,-0.769724,6
3.59436,5.2514,0.556751,31
2.7376,3.99817,-0.767468,2
3.58639,5.23583,0.779233,38
3.3943,4.95354,-0.73731,0
3.59299,5.24154,1.0065,32
3.44032,5.01882,-0.532347,21
3.58739,5.23142,1.23301,39
3.43014,5.00023,-0.317784,30
3.58474,5.22364,1.46263,40
3.48361,5.07437,-0.107437,52
3.59047,5.22809,1.69941,21
1.65765,2.40739,-0.783186,8
3.60955,5.24016,0.111067,27
1.9074,2.76803,-0.776081,9
3.60018,5.22265,0.332438,27
2.24411,3.25546,-0.768579,6
3.60814,5.23226,0.556054,27
2.7594,3.99997,-0.769658,2
3.60126,5.21837,0.778501,34
3.60229,5.21596,1.004,34
3.48046,5.03956,-0.535833,23
3.60452,5.21725,1.23263,43
3.46915,5.01945,-0.319773,32
3.59741,5.20307,1.46038,39
3.51381,5.08027,-0.107821,52
3.59991,5.20281,1.69526,22
1.66053,2.39365,-0.780598,7
3.61984,5.21603,0.110823,26
1.91927,2.76456,-0.776981,7
3.61155,5.20021,0.33181,31
2.25659,3.24922,-0.76896,6
3.61388,5.20163,0.554136,34
2.76658,3.98058,-0.76778,2
3.61492,5.19925,0.777526,35
3.61031,5.18876,1.00118,32
3.51054,5.04538,-0.537751,26
3.61598,5.19497,1.23034,49
3.51404,5.04664,-0.322285,32
3.60998,5.18249,1.45813,34
3.55439,5.10079,-0.108519,44
3.60811,5.17595,1.69061,22
1.66736,2.38655,-0.780081,8
3.62566,5.18761,0.110474,25
1.9262,2.75499,-0.776081,7
3.62649,5.18493,0.331601,30
2.26622,3.24011,-0.768579,6
3.62083,5.17493,0.552567,37
2.77863,3.96977,-0.767468,2
3.62303,5.17423,0.775577,35
3.61957,5.16544,0.998991,34
3.54555,5.05981,-0.54054,26
3.61628,5.15883,1.22461,40
3.54681,5.05786,-0.32375,32
3.62379,5.16571,1.45678,39
3.59656,5.12499,-0.109287,44
3.61637,5.15131,1.68646,22
1.67568,2.38071,-0.780081,8
3.64029,5.17002,0.110369,27
1.92458,2.73232,-0.771582,7
3.63306,5.15592,0.330554,27
2.28204,3.2386,-0.770105,6
3.63658,5.159,0.552219,37
2.79247,3.96004,-0.767468,4
3.62619,5.14046,0.772408,38
3.41535,4.83978,-0.727316,2
3.63302,5.14632,0.997739,34
3.57698,5.06694,-0.542632,26
3.62634,5.13495,1.22194,45
3.57712,5.06339,-0.324902,30
3.63168,5.1387,1.45273,47
3.64906,5.16139,-0.110334,22
3.62652,5.12761,1.68284,26
1.69068,2.3843,-0.783186,8
3.64096,5.13281,0.109845,31
1.93636,2.72876,-0.772482,7
3.63369,5.11877,0.328984,33
2.28765,3.22261,-0.768197,6
3.64418,5.13165,0.55065,44
2.80627,3.95027,-0.767468,2
3.64182,5.12454,0.77192,51
3.32525,4.67736,-0.704649,77
3.64867,5.13038,0.997113,53
3.32988,4.6804,-0.50254,31
3.6431,5.12066,1.22156,73
3.32494,4.67173,-0.300513,43
3.6349,5.10536,1.44689,57
3.3167,4.65672,-0.0997929,26
