# .PCD v.7 - Point Cloud Data file format
VERSION .7
FIELDS x y z intensity normals observationDirections
SIZE 4 4 4 4 4 4
TYPE F F F F F F
COUNT 1 1 1 1 3 3
WIDTH 551
HEIGHT 1
POINTS 551
DATA ascii
3.88254 0.768766 -0.769342 6 0.176529 0.0332534 0.983734 -3.88254 -0.768766 0.769342
5.72868 1.13327 0.510907 51 -0.900396 -0.434794 -0.0155102 -5.72868 -1.13327 -0.510907
5.75113 1.13458 -0.71976 45 -0.997418 -0.0717703 -0.00263041 -5.75113 -1.13458 0.71976
5.74706 1.13274 -0.512476 27 -0.997418 -0.0717703 -0.00263041 -5.74706 -1.13274 0.512476
5.73256 1.12884 1.1357 45 -0.976314 -0.216166 -0.00912306 -5.73256 -1.12884 -1.1357
5.7517 1.13157 -0.307212 47 -0.997418 -0.0717703 -0.00263041 -5.7517 -1.13157 0.307212
6.26039 1.23051 1.47298 10 -0.222477 -0.0421873 0.974025 -6.26039 -1.23051 -1.47298
5.74342 1.12785 -0.102166 30 -0.930628 -0.365967 9.5121e-05 -5.74342 -1.12785 0.102166
3.31501 0.644973 -0.77968 7 -0.00354799 -0.00649429 0.999973 -3.31501 -0.644973 0.77968
5.75033 1.11775 0.307003 37 -0.900396 -0.434794 -0.0155102 -5.75033 -1.11775 -0.307003
5.74042 1.11479 0.511604 55 -0.900396 -0.434794 -0.0155102 -5.74042 -1.11479 -0.511604
5.75489 1.11343 -0.512824 29 -0.997418 -0.0717703 -0.00263041 -5.75489 -1.11343 0.512824
5.73646 1.10882 1.1357 45 -0.976314 -0.216166 -0.00912306 -5.73646 -1.10882 -1.1357
5.75714 1.10969 -0.102341 26 -0.976056 -0.209778 0.0575176 -5.75714 -1.10969 0.102341
6.2582 1.20514 1.70769 4 0.253257 0.046753 -0.966269 -6.2582 -1.20514 -1.70769
3.30575 0.631204 -0.776981 7 0.216 0.0444803 0.97538 -3.30575 -0.631204 0.776981
5.75798 1.09735 0.512824 51 -0.930997 -0.365014 0.00313014 -5.75798 -1.09735 -0.512824
4.74262 0.902988 -0.764652 9 0.152325 0.0292594 0.987897 -4.74262 -0.902988 0.764652
6.25925 1.18496 1.47073 9 -0.222477 -0.0421873 0.974025 -6.25925 -1.18496 -1.47073
5.77232 1.08339 0.102515 46 -0.976056 -0.209778 0.0575176 -5.77232 -1.08339 -0.102515
3.89424 0.728788 -0.770105 6 0.176529 0.0332534 0.983734 -3.89424 -0.728788 0.770105
5.75061 1.07412 0.718298 45 -0.998029 -0.0627489 0.000671898 -5.75061 -1.07412 -0.718298
5.76511 1.07371 1.13989 40 -0.991897 -0.119311 -0.0436514 -5.76511 -1.07371 -1.13989
5.77483 1.07447 -0.30784 46 -0.942586 -0.331224 0.0426817 -5.77483 -1.07447 0.30784
5.75669 1.06902 -0.102201 28 -0.976056 -0.209778 0.0575176 -5.75669 -1.06902 0.102201
6.29285 1.16745 1.71494 4 0.253257 0.046753 -0.966269 -6.29285 -1.16745 -1.71494
5.7635 1.05884 0.307107 33 -0.750013 -0.661343 0.010248 -5.7635 -1.05884 -0.307107
3.87733 0.712321 -0.766289 6 0.118003 0.0147354 0.992904 -3.87733 -0.712321 0.766289
5.76995 1.0569 0.720248 45 -0.983993 -0.176997 -0.0207548 -5.76995 -1.0569 -0.720248
5.78185 1.05804 -0.72171 48 -0.120764 -0.0229159 -0.992417 -5.78185 -1.05804 0.72171
5.76539 1.05399 0.928282 30 -0.983993 -0.176997 -0.0207548 -5.76539 -1.05399 -0.928282
5.77389 1.05554 -0.513522 27 -0.942586 -0.331224 0.0426817 -5.77389 -1.05554 0.513522
5.77655 1.05498 1.14142 40 -0.991897 -0.119311 -0.0436514 -5.77655 -1.05498 -1.14142
5.7923 1.05682 -0.308573 48 -0.942586 -0.331224 0.0426817 -5.7923 -1.05682 0.308573
5.76826 1.05035 -0.102341 28 -0.750013 -0.661343 0.010248 -5.76826 -1.05035 0.102341
6.28168 1.14271 1.71079 5 0.253257 0.046753 -0.966269 -6.28168 -1.14271 -1.71079
5.78289 1.04155 0.307945 33 -0.930997 -0.365014 0.00313014 -5.78289 -1.04155 -0.307945
3.89718 0.701917 -0.769724 6 0.176529 0.0332534 0.983734 -3.89718 -0.701917 0.769724
5.77485 1.03906 0.513347 52 -0.995879 -0.0843238 -0.0333957 -5.77485 -1.03906 -0.513347
5.7686 1.03274 1.13913 40 -0.991897 -0.119311 -0.0436514 -5.7686 -1.03274 -1.13913
5.79202 1.03589 -0.308363 45 -0.899444 -0.436971 0.00753545 -5.79202 -1.03589 0.308363
5.77976 1.03162 -0.102481 26 -0.750013 -0.661343 0.010248 -5.77976 -1.03162 0.102481
6.29134 1.12179 1.71235 4 0.253257 0.046753 -0.966269 -6.29134 -1.12179 -1.71235
5.79022 1.02097 0.514393 56 -0.995879 -0.0843238 -0.0333957 -5.79022 -1.02097 -0.514393
4.741 0.835115 -0.762462 2 -0.180522 -0.0264801 -0.983214 -4.741 -0.835115 0.762462
5.80474 1.0204 -0.72366 45 -0.984172 -0.172632 0.0400427 -5.80474 -1.0204 0.72366
5.79363 1.01532 -0.308259 46 -0.899444 -0.436971 0.00753545 -5.79363 -1.01532 0.308259
6.30379 1.10359 1.47748 8 -0.223888 -0.0388303 0.973841 -6.30379 -1.10359 -1.47748
5.79694 1.01486 -0.102725 26 -0.992763 -0.118011 -0.022246 -5.79694 -1.01486 0.102725
5.79459 1.00507 0.102655 43 -0.992763 -0.118011 -0.022246 -5.79459 -1.00507 -0.102655
4.76127 0.822416 -0.765278 4 -0.155989 -0.0245794 -0.987453 -4.76127 -0.822416 0.765278
5.78639 0.998444 0.720979 39 -0.971536 -0.22961 -0.0582778 -5.78639 -0.998444 -0.720979
5.79346 0.997584 0.931098 32 -0.947138 -0.320272 0.0188767 -5.79346 -0.997584 -0.931098
5.81015 0.999411 -0.515788 24 -0.984172 -0.172632 0.0400427 -5.81015 -0.999411 0.515788
5.79097 0.996112 1.14218 42 -0.947138 -0.320272 0.0188767 -5.79097 -0.996112 -1.14218
5.80878 0.998131 -0.308887 43 -0.899444 -0.436971 0.00753545 -5.80878 -0.998131 0.308887
6.30549 1.08235 1.47703 8 -0.223888 -0.0388303 0.973841 -6.30549 -1.08235 -1.47703
5.81383 0.987512 0.102934 45 -0.99468 -0.10293 -0.00410286 -5.81383 -0.987512 -0.102934
3.33534 0.565928 -0.78103 6 0.221723 0.0373103 0.974396 -3.33534 -0.565928 0.78103
5.79134 0.981609 0.30784 33 -0.995879 -0.0843238 -0.0333957 -5.79134 -0.981609 -0.30784
3.90807 0.662403 -0.770487 6 0.169153 0.028837 0.985168 -3.90807 -0.662403 0.770487
5.80882 0.983532 0.515439 52 -0.971536 -0.22961 -0.0582778 -5.80882 -0.983532 -0.515439
5.79963 0.979891 0.722198 45 -0.971536 -0.22961 -0.0582778 -5.79963 -0.979891 -0.722198
5.79691 0.977353 0.931098 32 -0.947138 -0.320272 0.0188767 -5.79691 -0.977353 -0.931098
5.81736 0.980802 -0.516136 24 -0.984172 -0.172632 0.0400427 -5.81736 -0.980802 0.516136
6.31692 1.06163 1.47883 8 -0.223888 -0.0388303 0.973841 -6.31692 -1.06163 -1.47883
3.3373 0.554281 -0.78103 6 0.221723 0.0373103 0.974396 -3.3373 -0.554281 0.78103
5.81246 0.964334 0.308782 31 -0.99468 -0.10293 -0.00410286 -5.81246 -0.964334 -0.308782
3.90649 0.648117 -0.769724 6 -0.203857 -0.0286329 -0.978582 -3.90649 -0.648117 0.769724
5.81085 0.960941 0.723173 45 -0.9841 -0.177558 -0.00458993 -5.81085 -0.960941 -0.723173
5.8306 0.963159 -0.72561 45 -0.965993 -0.257976 -0.0175177 -5.8306 -0.963159 0.72561
5.81522 0.958536 1.14562 46 -0.962317 -0.271608 0.0132035 -5.81522 -0.958536 -1.14562
5.83137 0.96015 -0.309724 43 -0.995473 -0.0836439 0.0451371 -5.83137 -0.96015 0.309724
6.32444 1.0402 1.47973 7 -0.223888 -0.0388303 0.973841 -6.32444 -1.0402 -1.47973
5.80725 0.954099 -0.102725 28 -0.992763 -0.118011 -0.022246 -5.80725 -0.954099 0.102725
6.32908 1.0387 1.71856 4 0.251987 0.0419443 -0.966821 -6.32908 -1.0387 -1.71856
5.82058 0.946903 0.102934 46 -0.974321 -0.225166 -7.79633e-06 -5.82058 -0.946903 -0.102934
3.33921 0.542629 -0.78103 6 0.221723 0.0373103 0.974396 -3.33921 -0.542629 0.78103
5.81358 0.942639 0.515265 51 -0.9841 -0.177558 -0.00458993 -5.81358 -0.942639 -0.515265
5.81417 0.94065 0.723173 47 -0.9841 -0.177558 -0.00458993 -5.81417 -0.94065 -0.723173
5.828 0.9408 -0.516485 24 -0.965993 -0.257976 -0.0175177 -5.828 -0.9408 0.516485
5.81078 0.936979 1.14409 43 -0.962317 -0.271608 0.0132035 -5.81078 -0.936979 -1.14409
5.83075 0.939152 -0.309515 43 -0.995473 -0.0836439 0.0451371 -5.83075 -0.939152 0.309515
5.82831 0.936676 -0.103039 26 -0.974321 -0.225166 -7.79633e-06 -5.82831 -0.936676 0.103039
6.33648 1.01721 1.71959 4 0.253344 0.0382804 -0.966619 -6.33648 -1.01721 -1.71959
3.32569 0.528522 -0.777431 6 0.220696 0.0383382 0.974589 -3.32569 -0.528522 0.777431
5.81983 0.917609 1.14524 42 -0.962317 -0.271608 0.0132035 -5.81983 -0.917609 -1.14524
6.34694 0.998445 1.48333 7 -0.227358 -0.0361997 0.973138 -6.34694 -0.998445 -1.48333
6.34954 0.996585 1.72218 4 0.253344 0.0382804 -0.966619 -6.34954 -0.996585 -1.72218
5.84681 0.909315 0.103283 40 -0.865066 -0.501655 0.00167147 -5.84681 -0.909315 -0.103283
3.33522 0.518107 -0.77923 6 0.221723 0.0373103 0.974396 -3.33522 -0.518107 0.77923
3.9247 0.608979 -0.772013 8 0.186923 0.0256264 0.98204 -3.9247 -0.608979 0.772013
5.84429 0.902656 -0.726098 45 -0.889889 -0.456115 0.0074621 -5.84429 -0.902656 0.726098
5.85806 0.903736 -0.518577 24 -0.889889 -0.456115 0.0074621 -5.85806 -0.903736 0.518577
5.84703 0.899945 -0.310038 45 -0.889889 -0.456115 0.0074621 -5.84703 -0.899945 0.310038
3.34086 0.507047 -0.78013 6 -0.222772 -0.0318558 -0.97435 -3.34086 -0.507047 0.78013
3.90351 0.591743 -0.767434 6 0.118003 0.0147354 0.992904 -3.90351 -0.591743 0.767434
5.84677 0.885286 0.517356 51 -0.999949 -0.00382721 0.00935042 -5.84677 -0.885286 -0.517356
4.77159 0.721636 -0.764339 4 -0.184487 -0.0196438 -0.982639 -4.77159 -0.721636 0.764339
5.8394 0.882083 0.725123 43 -0.982934 -0.183943 -0.00239046 -5.8394 -0.882083 -0.725123
5.86512 0.883877 -0.518925 27 -0.918074 -0.395792 0.0221141 -5.86512 -0.883877 0.518925
5.86199 0.881312 -0.310666 45 -0.889889 -0.456115 0.0074621 -5.86199 -0.881312 0.310666
5.84571 0.876777 -0.103179 26 -0.944611 -0.326867 0.0294574 -5.84571 -0.876777 0.103179
6.36971 0.954236 1.72581 3 0.253344 0.0382804 -0.966619 -6.36971 -0.954236 -1.72581
5.86686 0.870529 0.103528 41 -0.944611 -0.326867 0.0294574 -5.86686 -0.870529 -0.103528
5.84801 0.866689 0.309829 31 -0.947739 -0.302302 -0.102007 -5.84801 -0.866689 -0.309829
4.75453 0.702089 -0.76121 4 -0.180522 -0.0264801 -0.983214 -4.75453 -0.702089 0.76121
5.85227 0.863144 0.726341 41 -0.959569 -0.279888 -0.0298252 -5.85227 -0.863144 -0.726341
5.87009 0.864726 -0.728535 47 -0.918074 -0.395792 0.0221141 -5.87009 -0.864726 0.728535
5.84918 0.861646 0.936417 27 -0.945544 -0.322456 -0.0443793 -5.84918 -0.861646 -0.936417
5.86817 0.863397 -0.518925 24 -0.918074 -0.395792 0.0221141 -5.86817 -0.863397 0.518925
5.85784 0.849348 0.103318 42 -0.944611 -0.326867 0.0294574 -5.85784 -0.849348 -0.103318
3.91143 0.56504 -0.768197 6 0.118003 0.0147354 0.992904 -3.91143 -0.56504 0.768197
5.85872 0.8453 0.517879 50 -0.959569 -0.279888 -0.0298252 -5.85872 -0.8453 -0.517879
5.85331 0.840348 1.14943 49 -0.959783 -0.27268 -0.0668042 -5.85331 -0.840348 -1.14943
6.37797 0.911127 1.72632 3 -0.877814 -0.475474 0.0580235 -6.37797 -0.911127 -1.72632
5.87067 0.830297 0.103493 45 -0.970213 -0.236333 -0.0532288 -5.87067 -0.830297 -0.103493
3.92495 0.553711 -0.770487 6 0.186923 0.0256264 0.98204 -3.92495 -0.553711 0.770487
5.87136 0.827258 0.518751 51 -0.959569 -0.279888 -0.0298252 -5.87136 -0.827258 -0.518751
4.75333 0.668883 -0.760272 4 -0.164728 -0.0189019 -0.986158 -4.75333 -0.668883 0.760272
5.85997 0.823565 0.726585 45 -0.959569 -0.279888 -0.0298252 -5.85997 -0.823565 -0.726585
5.87461 0.823532 0.939546 32 -0.959783 -0.27268 -0.0668042 -5.87461 -0.823532 -0.939546
5.88344 0.811163 0.103667 42 -0.947739 -0.302302 -0.102007 -5.88344 -0.811163 -0.103667
3.34753 0.460936 -0.78013 6 -0.222772 -0.0318558 -0.97435 -3.34753 -0.460936 0.78013
5.88262 0.804774 -0.729023 45 -0.979595 -0.183119 0.082836 -5.88262 -0.804774 0.729023
5.87745 0.803019 0.939546 34 -0.959783 -0.27268 -0.0668042 -5.87745 -0.803019 -0.939546
5.89535 0.803371 -0.311818 43 -0.0526015 -0.00709961 -0.99859 -5.89535 -0.803371 0.311818
6.40715 0.869699 1.73253 3 -0.877814 -0.475474 0.0580235 -6.40715 -0.869699 -1.73253
5.90407 0.793015 0.103981 36 -0.947739 -0.302302 -0.102007 -5.90407 -0.793015 -0.103981
3.35491 0.450026 -0.78148 7 -0.222772 -0.0318558 -0.97435 -3.35491 -0.450026 0.78148
3.92093 0.525253 -0.76896 6 -0.203857 -0.0286329 -0.978582 -3.92093 -0.525253 0.76896
5.89279 0.788359 0.520145 51 -0.980406 -0.179606 -0.0809015 -5.89279 -0.788359 -0.520145
4.77159 0.637516 -0.762462 2 -0.184487 -0.0196438 -0.982639 -4.77159 -0.637516 0.762462
5.8972 0.785806 -0.730485 45 0.11913 0.0150637 0.992764 -5.8972 -0.785806 0.730485
5.8763 0.781981 0.93892 34 -0.945544 -0.322456 -0.0443793 -5.8763 -0.781981 -0.93892
5.90208 0.783312 -0.312027 43 -0.0526015 -0.00709961 -0.99859 -5.90208 -0.783312 0.312027
6.40214 0.848545 1.49098 7 -0.54606 -0.113915 0.829965 -6.40214 -0.848545 -1.49098
6.41206 0.84758 1.73305 3 -0.877814 -0.475474 0.0580235 -6.41206 -0.84758 -1.73305
5.90879 0.772662 0.104016 36 -0.979903 -0.197144 -0.0304191 -5.90879 -0.772662 -0.104016
3.36226 0.439069 -0.78283 7 -0.224832 -0.0272284 -0.974017 -3.36226 -0.439069 0.78283
5.89952 0.763071 1.1563 49 0.188565 0.0256723 -0.981725 -5.89952 -0.763071 -1.1563
5.92062 0.764753 -0.312864 43 -0.895417 -0.444888 0.0174093 -5.92062 -0.764753 0.312864
6.41086 0.826938 1.49233 7 -0.877814 -0.475474 0.0580235 -6.41086 -0.826938 -1.49233
5.89836 0.759782 -0.103807 24 -0.970213 -0.236333 -0.0532288 -5.89836 -0.759782 0.103807
6.41498 0.825194 1.73305 3 -0.842614 -0.5222 0.131564 -6.41498 -0.825194 -1.73305
3.35411 0.426102 -0.78058 7 -0.224832 -0.0272284 -0.974017 -3.35411 -0.426102 0.78058
5.90649 0.749307 0.312027 31 -0.0524761 -0.00727223 0.998596 -5.90649 -0.749307 -0.312027
4.77005 0.603445 -0.761523 4 -0.180522 -0.0264801 -0.983214 -4.77005 -0.603445 0.761523
5.90241 0.74565 0.730485 43 -0.945544 -0.322456 -0.0443793 -5.90241 -0.74565 -0.730485
5.9183 0.746605 -0.732435 42 0.11913 0.0150637 0.992764 -5.9183 -0.746605 0.732435
5.90318 0.743651 0.942361 29 -0.77779 -0.624727 0.0689775 -5.90318 -0.743651 -0.942361
5.89825 0.741987 1.15554 46 0.188565 0.0256723 -0.981725 -5.89825 -0.741987 -1.15554
5.92325 0.74408 -0.312864 46 -0.895417 -0.444888 0.0174093 -5.92325 -0.74408 0.312864
6.42724 0.806251 1.49547 8 -0.225088 -0.0268601 0.973968 -6.42724 -0.806251 -1.49547
3.3459 0.413197 -0.778331 7 -0.224832 -0.0272284 -0.974017 -3.3459 -0.413197 0.778331
5.92295 0.730395 0.31276 31 -0.981614 -0.190326 -0.0144605 -5.92295 -0.730395 -0.31276
3.93791 0.485608 -0.77125 6 0.186923 0.0256264 0.98204 -3.93791 -0.485608 0.77125
5.90498 0.72504 0.730485 47 -0.989595 -0.122235 -0.0758911 -5.90498 -0.72504 -0.730485
5.93089 0.726121 -0.52276 24 -0.879356 -0.475758 -0.0196616 -5.93089 -0.726121 0.52276
5.92185 0.722919 -0.312655 43 -0.0526015 -0.00709961 -0.99859 -5.92185 -0.722919 0.312655
6.43582 0.78452 1.49682 7 -0.225088 -0.0268601 0.973968 -6.43582 -0.78452 -1.49682
5.91554 0.708529 0.312236 31 -0.981614 -0.190326 -0.0144605 -5.91554 -0.708529 -0.312236
3.93958 0.47186 -0.77125 6 0.186923 0.0256264 0.98204 -3.93958 -0.47186 0.77125
5.92696 0.708847 0.522237 47 -0.989595 -0.122235 -0.0758911 -5.92696 -0.708847 -0.522237
4.77022 0.569658 -0.760897 4 -0.184487 -0.0196438 -0.982639 -4.77022 -0.569658 0.760897
5.91536 0.705365 0.73146 41 -0.77779 -0.624727 0.0689775 -5.91536 -0.705365 -0.73146
5.93177 0.705219 0.946116 27 -0.77779 -0.624727 0.0689775 -5.93177 -0.705219 -0.946116
5.94526 0.706824 -0.523806 26 -0.879356 -0.475758 -0.0196616 -5.94526 -0.706824 0.523806
5.92278 0.703106 1.15936 43 0.187095 0.0207265 -0.982123 -5.92278 -0.703106 -1.15936
5.93624 0.703653 -0.313283 43 -0.879356 -0.475758 -0.0196616 -5.93624 -0.703653 0.313283
6.42691 0.760674 1.49412 7 -0.225088 -0.0268601 0.973968 -6.42691 -0.760674 -1.49412
5.93777 0.701732 -0.104365 24 -0.879356 -0.475758 -0.0196616 -5.93777 -0.701732 0.104365
6.45205 0.761369 1.74082 3 0.254312 0.0290047 -0.966687 -6.45205 -0.761369 -1.74082
3.35258 0.39028 -0.77923 6 -0.224832 -0.0272284 -0.974017 -3.35258 -0.39028 0.77923
5.93356 0.686536 0.73341 41 -0.77779 -0.624727 0.0689775 -5.93356 -0.686536 -0.73341
5.93419 0.684513 0.946116 32 -0.730161 -0.682128 0.03957 -5.93419 -0.684513 -0.946116
5.94967 0.686299 -0.52398 23 -0.983429 -0.174155 0.0503637 -5.94967 -0.686299 0.52398
5.93105 0.683099 1.1605 51 0.187095 0.0207265 -0.982123 -5.93105 -0.683099 -1.1605
5.93223 0.680089 -0.104226 24 -0.979903 -0.197144 -0.0304191 -5.93223 -0.680089 0.104226
5.93821 0.669224 0.313178 34 0.051866 0.00551159 -0.998639 -5.93821 -0.669224 -0.313178
4.78194 0.537226 -0.762149 4 -0.166462 -0.0185042 -0.985874 -4.78194 -0.537226 0.762149
5.94381 0.666704 0.734385 42 -0.967666 -0.251638 -0.0173402 -5.94381 -0.666704 -0.734385
5.94392 0.665669 -0.734385 46 -0.983429 -0.174155 0.0503637 -5.94392 -0.665669 0.734385
6.45143 0.717945 1.49862 7 -0.225088 -0.0268601 0.973968 -6.45143 -0.717945 -1.49862
5.94252 0.660259 -0.104365 24 -0.922539 -0.383597 0.042143 -5.94252 -0.660259 0.104365
4.76022 0.517968 -0.758394 5 -0.164728 -0.0189019 -0.986158 -4.76022 -0.517968 0.758394
5.95005 0.646382 0.734872 43 -0.730161 -0.682128 0.03957 -5.95005 -0.646382 -0.734872
5.95411 0.645771 -0.73536 46 -0.809674 -0.586638 0.0168429 -5.95411 -0.645771 0.73536
5.9563 0.644957 -0.524155 28 -0.809674 -0.586638 0.0168429 -5.9563 -0.644957 0.524155
5.97108 0.64445 -0.314748 36 -0.897941 -0.438694 -0.0353555 -5.97108 -0.64445 0.314748
5.96856 0.630481 0.314539 31 0.051866 0.00551159 -0.998639 -5.96856 -0.630481 -0.314539
3.96531 0.418871 -0.775066 6 -0.0172192 0.00124543 0.999851 -3.96531 -0.418871 0.775066
4.77771 0.503002 -0.760897 8 -0.166462 -0.0185042 -0.985874 -4.77771 -0.503002 0.760897
5.98229 0.626654 0.952686 26 -0.730161 -0.682128 0.03957 -5.98229 -0.626654 -0.952686
5.95154 0.622383 1.16317 45 -0.54606 -0.113915 0.829965 -5.95154 -0.622383 -1.16317
6.46791 0.6741 1.50132 7 -0.842614 -0.5222 0.131564 -6.46791 -0.6741 -1.50132
5.97779 0.612475 0.104889 36 -0.922539 -0.383597 0.042143 -5.97779 -0.612475 -0.104889
3.34801 0.342439 -0.776981 7 -0.225403 -0.0224617 -0.974007 -3.34801 -0.342439 0.776981
5.96675 0.609239 0.31433 31 0.051866 0.00551159 -0.998639 -5.96675 -0.609239 -0.31433
3.94721 0.403033 -0.77125 6 -0.00591385 0.00251271 0.999979 -3.94721 -0.403033 0.77125
5.96872 0.604175 0.950183 37 -0.897431 -0.440376 0.0262054 -5.96872 -0.604175 -0.950183
5.98643 0.605967 -0.526421 38 -0.809674 -0.586638 0.0168429 -5.98643 -0.605967 0.526421
5.95954 0.602198 1.16432 61 0.188622 0.0173649 -0.981896 -5.95954 -0.602198 -1.16432
5.98691 0.601798 -0.105029 44 -0.955836 -0.293801 0.00765641 -5.98691 -0.601798 0.105029
6.00178 0.593769 0.105273 56 -0.996464 0.0123738 0.0831066 -6.00178 -0.593769 -0.105273
3.35306 0.331134 -0.777881 7 -0.225403 -0.0224617 -0.974007 -3.35306 -0.331134 0.777881
5.98275 0.589777 0.315062 57 0.0516089 0.0045003 -0.998657 -5.98275 -0.589777 -0.315062
3.94469 0.388866 -0.770487 6 -0.00591385 0.00251271 0.999979 -3.94469 -0.388866 0.770487
5.98809 0.589249 0.526421 63 -0.970153 -0.2423 -0.00971006 -5.98809 -0.589249 -0.526421
4.78504 0.470021 -0.761523 5 -0.166462 -0.0185042 -0.985874 -4.78504 -0.470021 0.761523
5.9724 0.584547 -0.736822 48 0.12079 0.0109328 0.992618 -5.9724 -0.584547 0.736822
5.96489 0.582762 0.949244 42 -0.897431 -0.440376 0.0262054 -5.96489 -0.582762 -0.949244
5.99445 0.58565 -0.526944 47 -0.969934 -0.24311 0.0112174 -5.99445 -0.58565 0.526944
5.98701 0.583868 1.16928 69 0.188622 0.0173649 -0.981896 -5.98701 -0.583868 -1.16928
6.50737 0.632322 1.50942 9 -0.842614 -0.5222 0.131564 -6.50737 -0.632322 -1.50942
5.98102 0.580122 -0.104889 38 -0.996464 0.0123738 0.0831066 -5.98102 -0.580122 0.104889
3.35614 0.319612 -0.778331 6 0.221218 0.0206332 0.975006 -3.35614 -0.319612 0.778331
5.97821 0.567215 0.525375 41 -0.983339 -0.176846 -0.0420652 -5.97821 -0.567215 -0.525375
4.77682 0.452383 -0.759959 4 -0.184487 -0.0196438 -0.982639 -4.77682 -0.452383 0.759959
5.97638 0.563884 -0.737066 51 0.12079 0.0109328 0.992618 -5.97638 -0.563884 0.737066
5.99487 0.563515 1.17042 45 0.188622 0.0173649 -0.981896 -5.99487 -0.563515 -1.17042
6.53088 0.6116 1.51437 12 0.222829 0.0193531 -0.974666 -6.53088 -0.6116 -1.51437
5.98898 0.559798 -0.104994 28 -0.955836 -0.293801 0.00765641 -5.98898 -0.559798 0.104994
6.51681 0.607991 1.75376 4 -0.982191 -0.186296 -0.0243799 -6.51681 -0.607991 -1.75376
3.37276 0.309321 -0.78193 6 -0.265176 -0.0190667 -0.964011 -3.37276 -0.309321 0.78193
5.98611 0.546886 0.525898 37 -0.983339 -0.176846 -0.0420652 -5.98611 -0.546886 -0.525898
5.99601 0.54568 0.73926 41 -0.970153 -0.2423 -0.00971006 -5.99601 -0.54568 -0.73926
6.00796 0.545711 -0.740722 57 0.12079 0.0109328 0.992618 -6.00796 -0.545711 0.740722
5.98455 0.542531 0.951747 24 -0.897431 -0.440376 0.0262054 -5.98455 -0.542531 -0.951747
6.54657 0.590025 1.51752 12 -0.951681 -0.303659 -0.0457686 -6.54657 -0.590025 -1.51752
6.52274 0.585583 1.75479 5 -0.982191 -0.186296 -0.0243799 -6.52274 -0.585583 -1.75479
5.9997 0.530184 0.105133 38 -0.996464 0.0123738 0.0831066 -5.9997 -0.530184 -0.105133
3.35052 0.295491 -0.776531 6 -0.225403 -0.0224617 -0.974007 -3.35052 -0.295491 0.776531
6.01645 0.529544 0.316528 33 0.0509563 0.0037337 -0.998694 -6.01645 -0.529544 -0.316528
4.77002 0.418163 -0.758394 5 0.13159 0.00653992 0.991283 -4.77002 -0.418163 0.758394
5.99787 0.524745 0.73926 40 -0.897431 -0.440376 0.0262054 -5.99787 -0.524745 -0.73926
6.02209 0.524748 -0.528861 28 -0.97979 -0.199802 -0.00948561 -6.02209 -0.524748 0.528861
6.55635 0.567844 1.51932 12 -0.951681 -0.303659 -0.0457686 -6.55635 -0.567844 -1.51932
6.0056 0.504308 0.739991 37 -0.992151 -0.124951 0.00483778 -6.0056 -0.504308 -0.739991
6.00767 0.503422 -0.740234 57 0.12079 0.0109328 0.992618 -6.00767 -0.503422 0.740234
6.02786 0.504055 -0.52921 28 -0.972125 -0.231061 0.0398054 -6.02786 -0.504055 0.52921
6.00827 0.501364 1.17195 40 0.186975 0.0131358 -0.982277 -6.00827 -0.501364 -1.17195
6.01834 0.500086 -0.105413 24 -0.900257 -0.435358 0.00112209 -6.01834 -0.500086 0.105413
3.36022 0.273308 -0.778331 6 0.221218 0.0206332 0.975006 -3.36022 -0.273308 0.778331
6.01992 0.488582 0.316528 34 0.0516089 0.0045003 -0.998657 -6.01992 -0.488582 -0.316528
4.78063 0.386319 -0.759646 5 0 0 1 -4.78063 -0.386319 0.759646
6.01722 0.484135 -0.741209 57 -0.972125 -0.231061 0.0398054 -6.01722 -0.484135 0.741209
6.02958 0.483012 -0.52921 28 -0.972125 -0.231061 0.0398054 -6.02958 -0.483012 0.52921
6.02802 0.479711 -0.105552 24 -0.900257 -0.435358 0.00112209 -6.02802 -0.479711 0.105552
6.53613 0.518998 1.75686 6 -0.982191 -0.186296 -0.0243799 -6.53613 -0.518998 -1.75686
3.35727 0.261277 -0.777431 6 0.221218 0.0206332 0.975006 -3.35727 -0.261277 0.777431
4.78983 0.370241 -0.760897 5 0.127988 0.00850545 0.991739 -4.78983 -0.370241 0.760897
6.03075 0.464041 -0.742672 60 -0.972125 -0.231061 0.0398054 -6.03075 -0.464041 0.742672
6.52442 0.495155 1.75324 10 0.256258 0.0224045 -0.966349 -6.52442 -0.495155 -1.75324
6.04111 0.447872 0.31747 31 0.0509563 0.0037337 -0.998694 -6.04111 -0.447872 -0.31747
6.03819 0.444478 0.743403 37 -0.759271 -0.64997 0.0323463 -6.03819 -0.444478 -0.743403
6.04266 0.442686 -0.530081 28 -0.962615 -0.269802 0.0240503 -6.04266 -0.442686 0.530081
6.04962 0.441073 -0.317889 33 -0.962615 -0.269802 0.0240503 -6.04962 -0.441073 0.317889
6.04718 0.43877 -0.105831 24 -0.888562 -0.458617 -0.0113552 -6.04718 -0.43877 0.105831
6.46638 0.468055 1.73719 6 0.256258 0.0224045 -0.966349 -6.46638 -0.468055 -1.73719
6.04387 0.428988 0.105762 30 -0.888562 -0.458617 -0.0113552 -6.04387 -0.428988 -0.105762
6.0526 0.427487 0.317993 30 0.0509563 0.0037337 -0.998694 -6.0526 -0.427487 -0.317993
6.05183 0.426368 0.530778 38 -0.759271 -0.64997 0.0323463 -6.05183 -0.426368 -0.530778
4.78441 0.336239 -0.759646 8 0 0 1 -4.78441 -0.336239 0.759646
6.0438 0.421566 0.959569 21 -0.843613 -0.535503 0.0394154 -6.0438 -0.421566 -0.959569
6.05808 0.422562 -0.531301 26 -0.962615 -0.269802 0.0240503 -6.05808 -0.422562 0.531301
6.05112 0.419952 -0.317889 33 -0.882635 -0.468521 -0.0379994 -6.05112 -0.419952 0.317889
6.40771 0.443579 1.48288 13 0.222829 0.0193531 -0.974666 -6.40771 -0.443579 -1.48288
6.40244 0.440965 1.71959 8 0.256258 0.0224045 -0.966349 -6.40244 -0.440965 -1.71959
4.79147 0.31993 -0.760584 6 0.127988 0.00850545 0.991739 -4.79147 -0.31993 0.760584
6.04709 0.402708 0.744134 39 -0.843613 -0.535503 0.0394154 -6.04709 -0.402708 -0.744134
6.05112 0.401916 -0.744622 57 -0.977972 -0.180573 0.104709 -6.05112 -0.401916 0.744622
6.06946 0.40207 -0.532173 26 -0.882635 -0.468521 -0.0379994 -6.06946 -0.40207 0.532173
6.33727 0.416479 1.46623 12 0.222829 0.0193531 -0.974666 -6.33727 -0.416479 -1.46623
6.06606 0.397592 -0.106111 26 -0.964725 -0.262949 0.0127521 -6.06606 -0.397592 0.106111
6.06867 0.388191 0.106146 36 -0.964725 -0.262949 0.0127521 -6.06867 -0.388191 -0.106146
6.06341 0.385729 0.318412 33 -0.914826 -0.403419 -0.0186113 -6.06341 -0.385729 -0.318412
3.96365 0.252151 -0.772013 6 0.0953747 0.00707656 0.995416 -3.96365 -0.252151 0.772013
6.05863 0.384364 0.531127 38 -0.954592 -0.294508 -0.0449277 -6.05863 -0.384364 -0.531127
4.80045 0.3037 -0.761836 6 -0.18517 -0.0064579 -0.982685 -4.80045 -0.3037 0.761836
6.07384 0.378943 -0.318935 34 -0.882635 -0.468521 -0.0379994 -6.07384 -0.378943 0.318935
6.27256 0.390239 1.45093 11 -0.260888 0.769993 -0.582279 -6.27256 -0.390239 -1.45093
6.06142 0.376044 -0.106006 26 -0.964725 -0.262949 0.0127521 -6.06142 -0.376044 0.106006
6.28775 0.388981 1.68802 8 0.256258 0.0224045 -0.966349 -6.28775 -0.388981 -1.68802
6.08197 0.36773 0.106355 34 -0.880258 -0.47448 0.00377327 -6.08197 -0.36773 -0.106355
3.35354 0.202174 -0.775631 6 -0.226671 -0.0145022 -0.973863 -3.35354 -0.202174 0.775631
3.95471 0.237724 -0.770105 6 -0.00591385 0.00251271 0.999979 -3.95471 -0.237724 0.770105
4.80345 0.28706 -0.762149 5 -0.18517 -0.0064579 -0.982685 -4.80345 -0.28706 0.762149
6.07948 0.362253 0.74779 34 -0.979388 -0.201067 0.0192651 -6.07948 -0.362253 -0.74779
6.0831 0.358207 -0.319354 32 -0.882635 -0.468521 -0.0379994 -6.0831 -0.358207 0.319354
6.21 0.362417 1.66679 8 -0.262232 -0.00911737 0.964962 -6.21 -0.362417 -1.66679
6.08122 0.346383 0.10632 33 -0.880258 -0.47448 0.00377327 -6.08122 -0.346383 -0.10632
3.35812 0.190688 -0.776531 6 -0.226671 -0.0145022 -0.973863 -3.35812 -0.190688 0.776531
3.96139 0.224252 -0.77125 6 0.185731 0.0121406 0.982526 -3.96139 -0.224252 0.77125
6.08473 0.340191 -0.748278 46 0.120359 0.00564979 0.992714 -6.08473 -0.340191 0.748278
6.07473 0.338566 0.963636 21 -0.941397 -0.336332 -0.0255539 -6.07473 -0.338566 -0.963636
6.0883 0.337193 -0.319563 33 -0.965888 -0.255389 -0.0428462 -6.0883 -0.337193 0.319563
6.163 0.338094 1.65385 8 -0.262232 -0.00911737 0.964962 -6.163 -0.338094 -1.65385
3.97 0.210838 -0.772776 8 0.162293 0.00516511 0.986729 -3.97 -0.210838 0.772776
6.07625 0.321633 0.532347 37 -0.954592 -0.294508 -0.0449277 -6.07625 -0.321633 -0.532347
6.10433 0.318849 -0.534788 23 -0.965888 -0.255389 -0.0428462 -6.10433 -0.318849 0.534788
6.09343 0.316144 -0.319773 32 -0.965888 -0.255389 -0.0428462 -6.09343 -0.316144 0.319773
6.11205 0.313902 1.63988 11 -0.259187 -0.0118362 0.965755 -6.11205 -0.313902 -1.63988
6.10346 0.304917 0.106669 33 -0.914826 -0.403419 -0.0186113 -6.10346 -0.304917 -0.106669
6.08017 0.301626 0.31904 30 -0.0526998 -0.00272312 0.998607 -6.08017 -0.301626 -0.31904
4.78449 0.235676 -0.758707 6 0.13159 0.00653992 0.991283 -4.78449 -0.235676 0.758707
6.09087 0.298957 0.748765 34 -0.98801 -0.143123 0.0579008 -6.09087 -0.298957 -0.748765
6.10654 0.297593 0.968329 24 -0.972662 -0.226593 -0.0508367 -6.10654 -0.297593 -0.968329
6.11536 0.298022 -0.535659 26 -0.953278 -0.286553 0.0956458 -6.11536 -0.298022 0.535659
6.09649 0.29497 -0.319877 31 -0.965888 -0.255389 -0.0428462 -6.09649 -0.29497 0.319877
6.09832 0.293992 1.40954 51 -0.225525 -0.0100712 0.974185 -6.09832 -0.293992 -1.40954
6.11402 0.293676 -0.106844 22 -0.880258 -0.47448 0.00377327 -6.11402 -0.293676 0.106844
3.35604 0.155331 -0.775631 7 -0.227902 -0.00929015 -0.97364 -3.35604 -0.155331 0.775631
6.09316 0.280954 0.319668 31 -0.0526998 -0.00272312 0.998607 -6.09316 -0.280954 -0.319668
4.80107 0.219694 -0.76121 6 -0.18517 -0.0064579 -0.982685 -4.80107 -0.219694 0.76121
6.10774 0.278422 0.750715 34 -0.95979 -0.278627 -0.0341926 -6.10774 -0.278422 -0.750715
6.10163 0.276006 0.967391 21 -0.98801 -0.143123 0.0579008 -6.10163 -0.276006 -0.967391
6.11437 0.276582 -0.535485 23 -0.876461 -0.481439 -0.00578265 -6.11437 -0.276582 0.535485
6.09347 0.27244 1.40819 47 -0.225525 -0.0100712 0.974185 -6.09347 -0.27244 -1.40819
6.10444 0.270796 1.63729 30 -0.259187 -0.0118362 0.965755 -6.10444 -0.270796 -1.63729
6.11343 0.262646 0.106809 33 -0.969874 -0.243458 0.00849243 -6.11343 -0.262646 -0.106809
3.37019 0.144199 -0.778781 7 -0.265176 -0.0190667 -0.964011 -3.37019 -0.144199 0.778781
6.11006 0.260361 0.320505 30 -0.0526998 -0.00272312 0.998607 -6.11006 -0.260361 -0.320505
6.11264 0.257265 0.751203 34 -0.95979 -0.278627 -0.0341926 -6.11264 -0.257265 -0.751203
6.10475 0.255863 -0.750228 21 0.120359 0.00564979 0.992714 -6.10475 -0.255863 0.750228
6.13233 0.253802 -0.321657 36 -0.876461 -0.481439 -0.00578265 -6.13233 -0.253802 0.321657
6.1223 0.241618 0.106948 32 -0.969874 -0.243458 0.00849243 -6.1223 -0.241618 -0.106948
6.1249 0.23958 0.321238 31 -0.969874 -0.243458 0.00849243 -6.1249 -0.23958 -0.321238
4.79262 0.185789 -0.759646 5 0 0 1 -4.79262 -0.185789 0.759646
6.12937 0.23654 0.753153 35 -0.972662 -0.226593 -0.0508367 -6.12937 -0.23654 -0.753153
6.10958 0.234709 -0.750715 14 -0.953278 -0.286553 0.0956458 -6.10958 -0.234709 0.750715
6.13075 0.230161 -0.107088 24 0.0166436 0.000323935 0.999861 -6.13075 -0.230161 0.107088
6.11584 0.228536 1.63988 24 0.252183 0.00509136 -0.967666 -6.11584 -0.228536 -1.63988
6.13669 0.217516 0.537228 37 -0.95979 -0.278627 -0.0341926 -6.13669 -0.217516 -0.537228
4.79323 0.169061 -0.759646 5 0.13159 0.00653992 0.991283 -4.79323 -0.169061 0.759646
6.12223 0.214863 0.752178 30 -0.95979 -0.278627 -0.0341926 -6.12223 -0.214863 -0.752178
6.09846 0.212963 -0.749253 10 -0.122529 -0.00314329 -0.99246 -6.09846 -0.212963 0.749253
6.14082 0.213373 -0.537577 23 -0.953278 -0.286553 0.0956458 -6.14082 -0.213373 0.537577
6.12366 0.211704 1.19103 36 0.189107 0.00746319 -0.981928 -6.12366 -0.211704 -1.19103
6.12996 0.21085 -0.321447 35 -0.939771 -0.339749 -0.0374395 -6.12996 -0.21085 0.321447
6.13689 0.210016 1.41764 40 -0.96071 -0.277039 0.0169154 -6.13689 -0.210016 -1.41764
3.97943 0.127839 -0.773921 6 -0.0172192 0.00124543 0.999851 -3.97943 -0.127839 0.773921
6.15135 0.19654 0.538448 32 -0.985783 -0.155791 -0.0629441 -6.15135 -0.19654 -0.538448
6.1424 0.191962 0.973335 26 -0.988052 -0.153456 0.0142636 -6.1424 -0.191962 -0.973335
6.13613 0.190691 1.19332 40 -0.96071 -0.277039 0.0169154 -6.13613 -0.190691 -1.19332
6.14463 0.189884 -0.32218 31 -0.939771 -0.339749 -0.0374395 -6.14463 -0.189884 0.32218
6.13564 0.188535 1.41719 37 -0.96071 -0.277039 0.0169154 -6.13564 -0.188535 -1.41719
6.1462 0.187783 -0.107332 22 0.0166436 0.000323935 0.999861 -6.1462 -0.187783 0.107332
6.13852 0.186479 1.64557 23 0.252183 0.00509136 -0.967666 -6.13852 -0.186479 -1.64557
6.152 0.175065 0.538448 32 -0.985783 -0.155791 -0.0629441 -6.152 -0.175065 -0.538448
6.14342 0.172677 0.754615 37 -0.988052 -0.153456 0.0142636 -6.14342 -0.172677 -0.754615
6.08789 0.17005 -0.74779 9 -0.122529 -0.00314329 -0.99246 -6.08789 -0.17005 0.74779
6.16208 0.171047 -0.53932 23 -0.0878289 -0.00195062 -0.996134 -6.16208 -0.171047 0.53932
6.14989 0.167486 1.42034 43 -0.96071 -0.277039 0.0169154 -6.14989 -0.167486 -1.42034
6.15081 0.166437 -0.107402 22 0.01723 0.000256835 0.999852 -6.15081 -0.166437 0.107402
6.14493 0.165204 1.64712 22 0.252183 0.00509136 -0.967666 -6.14493 -0.165204 -1.64712
6.15906 0.156979 0.107542 31 -0.95647 -0.289865 0.0338316 -6.15906 -0.156979 -0.107542
3.97237 0.0998585 -0.772395 6 0.162293 0.00516511 0.986729 -3.97237 -0.0998585 0.772395
6.15656 0.15369 0.538797 34 -0.985783 -0.155791 -0.0629441 -6.15656 -0.15369 -0.538797
6.09241 0.148894 -0.748278 9 -0.122529 -0.00314329 -0.99246 -6.09241 -0.148894 0.748278
6.15544 0.149362 0.975213 21 -0.988052 -0.153456 0.0142636 -6.15544 -0.149362 -0.975213
6.16264 0.149537 -0.53932 23 -0.939771 -0.339749 -0.0374395 -6.16264 -0.149537 0.53932
6.15935 0.145155 -0.107542 22 0.01723 0.000256835 0.999852 -6.15935 -0.145155 0.107542
3.37441 0.0736298 -0.77923 7 -0.226162 -0.00346097 -0.974084 -3.37441 -0.0736298 0.77923
3.96485 0.0858226 -0.770868 6 0.0953747 0.00707656 0.995416 -3.96485 -0.0858226 0.770868
6.16104 0.132283 0.539145 34 -0.985783 -0.155791 -0.0629441 -6.16104 -0.132283 -0.539145
6.17182 0.123893 -0.107751 22 0.01723 0.000256835 0.999852 -6.17182 -0.123893 0.107751
3.36296 0.0616369 -0.776531 7 -0.226162 -0.00346097 -0.974084 -3.36296 -0.0616369 0.776531
3.97297 0.0721237 -0.772395 6 0.162293 0.00516511 0.986729 -3.97297 -0.0721237 0.772395
6.16943 0.11092 0.539843 30 -0.930373 -0.366029 0.0207089 -6.16943 -0.11092 -0.539843
4.80533 0.0855561 -0.76121 8 -0.18517 -0.0064579 -0.982685 -4.80533 -0.0855561 0.76121
6.08537 0.106222 -0.747303 9 -0.122529 -0.00314329 -0.99246 -6.08537 -0.106222 0.747303
6.18003 0.106795 0.978967 21 -0.875513 -0.480116 0.054451 -6.18003 -0.106795 -0.978967
6.17947 0.106786 -0.540714 26 -0.0878289 -0.00195062 -0.996134 -6.17947 -0.106786 0.540714
6.16961 0.105538 1.19943 42 -0.90387 -0.427008 0.026142 -6.16961 -0.105538 -1.19943
6.16564 0.101165 1.6523 22 -0.262232 -0.00911737 0.964962 -6.16564 -0.101165 -1.6523
3.9575 0.0580237 -0.769342 6 0.123432 -0.000226306 0.992353 -3.9575 -0.0580237 0.769342
6.1843 0.0863573 0.979593 21 -0.90387 -0.427008 0.026142 -6.1843 -0.0863573 -0.979593
6.19349 0.0843205 1.204 42 -0.90387 -0.427008 0.026142 -6.19349 -0.0843205 -1.204
6.18495 0.0831276 -0.324169 35 -0.0528737 -0.00110794 -0.998601 -6.18495 -0.0831276 0.324169
6.18651 0.0820657 -0.107995 26 0.01723 0.000256835 0.999852 -6.18651 -0.0820657 0.107995
6.18719 0.0809947 1.65799 23 -0.262232 -0.00911737 0.964962 -6.18719 -0.0809947 -1.65799
6.19463 0.072442 0.108135 27 -0.96181 -0.272043 -0.0302329 -6.19463 -0.072442 -0.108135
3.36525 0.0387669 -0.776981 7 -0.226162 -0.00346097 -0.974084 -3.36525 -0.0387669 0.776981
6.1871 0.0712739 0.324274 27 -0.96181 -0.272043 -0.0302329 -6.1871 -0.0712739 -0.324274
6.18916 0.0669765 0.759977 37 -0.875513 -0.480116 0.054451 -6.18916 -0.0669765 -0.759977
6.078 0.0657736 -0.746328 9 -0.999544 0.020231 -0.0224293 -6.078 -0.0657736 0.746328
6.19798 0.0649084 -0.542283 26 -0.0878289 -0.00195062 -0.996134 -6.19798 -0.0649084 0.542283
6.20552 0.0639042 1.20629 42 -0.923045 -0.374793 -0.0867049 -6.20552 -0.0639042 -1.20629
6.19275 0.061611 -0.1081 22 -0.999151 -0.0205662 0.0357071 -6.19275 -0.061611 0.1081
6.19129 0.0605158 1.65903 23 -0.882737 -0.469137 0.0261825 -6.19129 -0.0605158 -1.65903
3.96565 0.0318401 -0.770868 6 0.0953747 0.00707656 0.995416 -3.96565 -0.0318401 0.770868
4.80398 0.0368918 -0.760897 8 0.126391 -0.00170495 0.991979 -4.80398 -0.0368918 0.760897
6.08216 0.0445874 -0.746815 9 0.103481 -0.00167732 0.99463 -6.08216 -0.0445874 0.746815
6.1966 0.0443419 0.98147 19 -0.845286 -0.527911 0.08247 -6.1966 -0.0443419 -0.98147
6.21551 0.0433924 1.2082 37 -0.845286 -0.527911 0.08247 -6.21551 -0.0433924 -1.2082
6.20498 0.0303235 0.10831 29 -0.999151 -0.0205662 0.0357071 -6.20498 -0.0303235 -0.10831
6.2214 0.0282322 0.326053 31 -0.99164 -0.128974 0.00404829 -6.2214 -0.0282322 -0.326053
4.79617 0.0200928 -0.759646 6 0 0 1 -4.79617 -0.0200928 0.759646
6.21726 0.0249582 0.76339 35 -0.988578 -0.133373 0.0701799 -6.21726 -0.0249582 -0.76339
6.08625 0.0233701 -0.747303 8 0.103481 -0.00167732 0.99463 -6.08625 -0.0233701 0.747303
6.19869 0.022723 0.981783 22 -0.845286 -0.527911 0.08247 -6.19869 -0.022723 -0.981783
6.22152 0.0217178 1.20935 39 -0.93737 -0.346825 -0.0324176 -6.22152 -0.0217178 -1.20935
6.20702 0.0173341 1.66317 24 -0.882737 -0.469137 0.0261825 -6.20702 -0.0173341 -1.66317
6.22105 0.00868758 0.108589 29 -0.99164 -0.128974 0.00404829 -6.22105 -0.00868758 -0.108589
3.36547 0.00411247 -0.776981 7 0.22464 -0.000926631 0.974441 -3.36547 -0.00411247 0.776981
4.80609 0.00335653 -0.76121 8 0.102624 -0.00143121 0.994719 -4.80609 -0.00335653 0.76121
6.21334 0.00325201 0.762902 34 -0.988578 -0.133373 0.0701799 -6.21334 -0.00325201 -0.762902
6.22548 -0 1.21011 36 -0.93737 -0.346825 -0.0324176 -6.22548 0 -1.21011
6.22233 -0.002172 1.43654 34 -0.93737 -0.346825 -0.0324176 -6.22233 0.002172 -1.43654
6.23905 -0.00326676 -0.108903 24 -0.953294 -0.30126 0.0217642 -6.23905 0.00326676 0.108903
6.22056 -0.00434277 1.66679 25 -0.882737 -0.469137 0.0261825 -6.22056 0.00434277 -1.66679
3.97165 -0.0097046 -0.772013 6 0.162293 0.00516511 0.986729 -3.97165 0.0097046 0.772013
4.812 -0.0134377 -0.762149 8 0.141442 0.00070822 0.989946 -4.812 0.0134377 0.762149
6.2303 -0.0206605 0.986789 21 -0.845286 -0.527911 0.08247 -6.2303 0.0206605 -0.986789
6.2374 -0.0228614 -0.32689 32 0.0513555 -0.000817142 0.99868 -6.2374 0.0228614 0.32689
6.22228 -0.023892 1.43654 34 -0.882737 -0.469137 0.0261825 -6.22228 0.023892 -1.43654
6.25694 -0.0371298 0.109217 34 -0.864258 -0.500715 -0.0484114 -6.25694 0.0371298 -0.109217
3.37321 -0.020606 -0.778781 7 0.22464 -0.000926631 0.974441 -3.37321 0.020606 0.778781
3.96962 -0.0249422 -0.771632 6 -0.249786 0.00560273 -0.968285 -3.96962 0.0249422 0.771632
4.82179 -0.0319798 -0.763713 8 0.141442 0.00070822 0.989946 -4.82179 0.0319798 0.763713
6.23702 -0.0424547 0.765827 34 -0.89606 -0.442841 -0.0311136 -6.23702 0.0424547 -0.765827
6.23019 -0.0434956 0.986789 21 0.15559 -0.00287527 -0.987818 -6.23019 0.0434956 -0.986789
6.24797 -0.0447103 -0.546641 26 -0.747949 0.0788007 0.659062 -6.24797 0.0447103 0.546641
6.25476 -0.0458506 1.21583 36 -0.941113 -0.334783 -0.0471826 -6.25476 0.0458506 -1.21583
6.25524 -0.0469459 -0.327832 29 0.0513555 -0.000817142 0.99868 -6.25524 0.0469459 0.327832
6.23384 -0.0467854 1.43924 32 -0.941113 -0.334783 -0.0471826 -6.23384 0.0467854 -1.43924
6.23389 -0.0489619 1.67042 23 -0.996734 -0.0798428 -0.0120931 -6.23389 0.0489619 -1.67042
6.25678 -0.0578784 0.109217 29 -0.864258 -0.500715 -0.0484114 -6.25678 0.0578784 -0.109217
6.24186 -0.0610089 0.546118 30 -0.963961 -0.263702 0.0352275 -6.24186 0.0610089 -0.546118
4.8098 -0.0478513 -0.761836 8 0.102624 -0.00143121 0.994719 -4.8098 0.0478513 0.761836
6.25669 -0.0633381 0.768264 33 -0.963961 -0.263702 0.0352275 -6.25669 0.0633381 -0.768264
6.25065 -0.0665501 1.21507 36 -0.941113 -0.334783 -0.0471826 -6.25065 0.0665501 -1.21507
6.26104 -0.0677536 -0.328146 28 0.0513555 -0.000817142 0.99868 -6.26104 0.0677536 0.328146
6.25667 -0.0687984 -0.109217 22 -0.953294 -0.30126 0.0217642 -6.25667 0.0687984 0.109217
6.26255 -0.0787017 0.109322 32 -0.982531 -0.185982 0.00654934 -6.26255 0.0787017 -0.109322
3.373 -0.0429773 -0.778781 7 0.22464 -0.000926631 0.974441 -3.373 0.0429773 0.778781
6.25557 -0.0818899 0.547338 31 -0.963961 -0.263702 0.0352275 -6.25557 0.0818899 -0.547338
4.79974 -0.0636699 -0.760272 6 0.148533 -0.0046198 0.988897 -4.79974 0.0636699 0.760272
6.26746 -0.0864219 -0.548384 23 0.0860894 -0.00224006 0.996285 -6.26746 0.0864219 0.548384
6.25628 -0.0873598 1.21622 34 -0.941113 -0.334783 -0.0471826 -6.25628 0.0873598 -1.21622
6.25871 -0.0895789 1.44509 39 -0.979137 -0.195669 -0.054807 -6.25871 0.0895789 -1.44509
6.26839 -0.0908117 -0.109427 22 -0.982531 -0.185982 0.00654934 -6.26839 0.0908117 0.109427
6.27024 -0.10069 0.109461 27 -0.982531 -0.185982 0.00654934 -6.27024 0.10069 -0.109461
3.36503 -0.0546245 -0.776981 7 0.213854 -0.0077191 0.976835 -3.36503 0.0546245 0.776981
3.96524 -0.0650599 -0.770868 4 -0.288228 0.00489851 -0.957549 -3.96524 0.0650599 0.770868
6.27317 -0.104023 0.548907 34 -0.950681 -0.307296 -0.0421343 -6.27317 0.104023 -0.548907
6.26443 -0.11044 -0.328356 28 0.0513555 -0.000817142 0.99868 -6.26443 0.11044 0.328356
6.28984 -0.122967 0.109811 27 -0.977085 -0.212703 -0.00786628 -6.28984 0.122967 -0.109811
3.36872 -0.0664472 -0.777881 7 0.213854 -0.0077191 0.976835 -3.36872 0.0664472 0.777881
6.27814 -0.124931 0.329089 27 -0.977085 -0.212703 -0.00786628 -6.27814 0.124931 -0.329089
6.29269 -0.126319 0.55065 32 -0.950681 -0.307296 -0.0421343 -6.29269 0.126319 -0.55065
4.80511 -0.0972966 -0.76121 8 0.126391 -0.00170495 0.991979 -4.80511 0.0972966 0.76121
6.28349 -0.128329 0.771677 29 -0.950681 -0.307296 -0.0421343 -6.28349 0.128329 -0.771677
6.29855 -0.131936 -0.551173 23 0.0860894 -0.00224006 0.996285 -6.29855 0.131936 0.551173
6.26573 -0.133436 1.44689 37 -0.979137 -0.195669 -0.054807 -6.26573 0.133436 -1.44689
6.30737 -0.145337 0.110125 24 -0.941692 -0.336096 0.0159672 -6.30737 0.145337 -0.110125
6.28166 -0.146939 0.329298 25 -0.977085 -0.212703 -0.00786628 -6.28166 0.146939 -0.329298
3.96467 -0.0934327 -0.770868 6 -0.288228 0.00489851 -0.957549 -3.96467 0.0934327 0.770868
6.29219 -0.149382 0.55065 34 -0.950681 -0.307296 -0.0421343 -6.29219 0.149382 -0.55065
6.27705 -0.150119 0.770946 27 -0.950681 -0.307296 -0.0421343 -6.27705 0.150119 -0.770946
6.27393 -0.152236 0.993985 21 0.15559 -0.00287527 -0.987818 -6.27393 0.152236 -0.993985
6.27883 -0.156741 1.45003 32 -0.85633 -0.515333 0.0336303 -6.27883 0.156741 -1.45003
6.29308 -0.157097 -0.10988 22 -0.941692 -0.336096 0.0159672 -6.29308 0.157097 0.10988
6.31103 -0.170771 0.330868 22 -0.979899 -0.196947 -0.0317737 -6.31103 0.170771 -0.330868
4.79836 -0.131516 -0.760272 6 0.148533 -0.0046198 0.988897 -4.79836 0.131516 0.760272
6.28912 -0.175671 0.996488 24 -0.158092 0.00359601 0.987418 -6.28912 0.175671 -0.996488
6.30545 -0.176127 -0.55187 23 0.0860894 -0.00224006 0.996285 -6.30545 0.176127 0.55187
6.30348 -0.177173 1.22576 39 -0.966402 -0.257024 -0.00237728 -6.30348 0.177173 -1.22576
6.30162 -0.179322 1.45543 34 -0.966402 -0.257024 -0.00237728 -6.30162 0.179322 -1.45543
3.99336 -0.122008 -0.776593 6 0.179472 -0.00469186 0.983752 -3.99336 0.122008 0.776593
4.79985 -0.148326 -0.760584 5 0.126391 -0.00170495 0.991979 -4.79985 0.148326 0.760584
6.31873 -0.198574 -0.55309 21 0.0865025 -0.00362271 0.996245 -6.31873 0.198574 0.55309
6.30283 -0.199175 1.22576 36 -0.966402 -0.257024 -0.00237728 -6.30283 0.199175 -1.22576
6.32013 -0.200826 -0.331391 28 -0.0526872 0.00184431 -0.998609 -6.32013 0.200826 0.331391
6.29842 -0.203438 1.68854 22 -0.84399 -0.536138 -0.0153574 -6.29842 0.203438 -1.68854
3.38302 -0.114591 -0.78148 7 0.220156 -0.00474918 0.975453 -3.38302 0.114591 0.78148
3.98114 -0.135546 -0.774303 6 0.179472 -0.00469186 0.983752 -3.98114 0.135546 0.774303
6.08262 -0.211347 -0.747303 8 0.103481 -0.00167732 0.99463 -6.08262 0.211347 0.747303
6.32328 -0.220814 1.00212 29 -0.158092 0.00359601 0.987418 -6.32328 0.220814 -1.00212
6.33194 -0.221116 -0.554311 23 0.0865025 -0.00362271 0.996245 -6.33194 0.221116 0.554311
6.33536 -0.22345 -0.332229 34 -0.0526872 0.00184431 -0.998609 -6.33536 0.22345 0.332229
6.33465 -0.235603 0.110648 27 -0.912812 -0.408242 0.0106243 -6.33465 0.235603 -0.110648
6.32685 -0.237524 0.33181 28 -0.862553 -0.50588 -0.00936168 -6.32685 0.237524 -0.33181
4.80067 -0.181906 -0.760897 6 0.126391 -0.00170495 0.991979 -4.80067 0.181906 0.760897
6.32786 -0.24088 0.777526 37 -0.949825 -0.297621 -0.0961963 -6.32786 0.24088 -0.777526
6.06598 -0.231971 -0.745353 8 -0.732708 0.0100439 0.680469 -6.06598 0.231971 0.745353
6.32444 -0.242961 1.00243 24 -0.158092 0.00359601 0.987418 -6.32444 0.242961 -1.00243
6.33267 -0.244384 1.23186 36 -0.96503 -0.257274 -0.0502677 -6.33267 0.244384 -1.23186
6.32082 -0.246136 1.46038 39 -0.96503 -0.257274 -0.0502677 -6.32082 0.246136 -1.46038
6.34019 -0.247998 -0.110753 18 -0.912812 -0.408242 0.0106243 -6.34019 0.247998 0.110753
3.36849 -0.138237 -0.778331 6 0.213854 -0.0077191 0.976835 -3.36849 0.138237 0.778331
6.33397 -0.259935 0.332229 28 -0.862553 -0.50588 -0.00936168 -6.33397 0.259935 -0.332229
6.32553 -0.265118 1.00275 27 -0.794217 -0.606774 -0.0323125 -6.32553 0.265118 -1.00275
6.3435 -0.26809 1.23415 37 -0.96503 -0.257274 -0.0502677 -6.3435 0.26809 -1.23415
6.34956 -0.269456 -0.333066 30 -0.0526872 0.00184431 -0.998609 -6.34956 0.269456 0.333066
6.32961 -0.269716 1.46263 40 -0.96503 -0.257274 -0.0502677 -6.32961 0.269716 -1.46263
6.33647 -0.271116 1.69941 22 -0.965614 -0.255941 -0.0456464 -6.33647 0.271116 -1.69941
3.38164 -0.150011 -0.78148 7 -0.225815 0.0118795 -0.974098 -3.38164 0.150011 0.78148
3.9677 -0.177397 -0.772013 6 -0.249786 0.00560273 -0.968285 -3.9677 0.177397 0.772013
4.79336 -0.21515 -0.759959 5 0.148533 -0.0046198 0.988897 -4.79336 0.21515 0.759959
6.35181 -0.286212 0.780695 38 -0.794217 -0.606774 -0.0323125 -6.35181 0.286212 -0.780695
6.06818 -0.274493 -0.74584 8 -0.732708 0.0100439 0.680469 -6.06818 0.274493 0.74584
6.34815 -0.291598 1.46713 36 -0.890699 -0.45398 0.0235941 -6.34815 0.291598 -1.46713
6.36796 -0.304761 0.334113 30 -0.882762 -0.469819 0.000891493 -6.36796 0.304761 -0.334113
6.3583 -0.306523 0.556925 30 0.0861574 -0.00516623 -0.996268 -6.3583 0.306523 -0.556925
4.79456 -0.231977 -0.760272 8 0.148533 -0.0046198 0.988897 -4.79456 0.231977 0.760272
6.36465 -0.309056 0.782401 34 -0.966481 -0.255948 -0.0201409 -6.36465 0.309056 -0.782401
6.35909 -0.309899 1.00838 30 -0.794217 -0.606774 -0.0323125 -6.35909 0.309899 -1.00838
6.37002 -0.311546 -0.557971 26 0.0861903 -0.00518625 0.996265 -6.37002 0.311546 0.557971
6.35526 -0.311936 1.23682 40 -0.890699 -0.45398 0.0235941 -6.35526 0.311936 -1.23682
6.37751 -0.314144 -0.334636 28 0.052198 -0.00296443 0.998632 -6.37751 0.314144 0.334636
6.35682 -0.314237 1.46938 37 -0.965614 -0.255941 -0.0456464 -6.35682 0.314237 -1.46938
6.36925 -0.314851 -0.111311 20 -0.843135 -0.537049 0.0264795 -6.36925 0.314851 0.111311
6.34992 -0.315006 1.70355 21 -0.904513 -0.425866 0.0222201 -6.34992 0.315006 -1.70355
3.36886 -0.172428 -0.778781 7 0.213854 -0.0077191 0.976835 -3.36886 0.172428 0.778781
3.98405 -0.205309 -0.775448 4 0.179472 -0.00469186 0.983752 -3.98405 0.205309 0.775448
6.07013 -0.315998 -0.746328 8 -0.130099 0.00825502 -0.991467 -6.07013 0.315998 0.746328
6.36586 -0.332507 1.00963 45 -0.966481 -0.255948 -0.0201409 -6.36586 0.332507 -1.00963
6.39476 -0.335135 -0.560237 45 0.0861903 -0.00518625 0.996265 -6.39476 0.335135 0.560237
6.38042 -0.3355 -0.334845 43 0.052198 -0.00296443 0.998632 -6.38042 0.3355 0.334845
6.39008 -0.338245 -0.111695 43 -0.843135 -0.537049 0.0264795 -6.39008 0.338245 0.111695
6.38363 -0.350195 0.335055 45 -0.882762 -0.469819 0.000891493 -6.38363 0.350195 -0.335055
6.37627 -0.35314 0.784107 41 -0.966481 -0.255948 -0.0201409 -6.37627 0.35314 -0.784107
6.39753 -0.357678 -0.560586 28 0.0861903 -0.00518625 0.996265 -6.39753 0.357678 0.560586
6.36037 -0.357827 1.47073 31 -0.904513 -0.425866 0.0222201 -6.36037 0.357827 -1.47073
6.40426 -0.37151 0.111975 23 -0.996067 -0.0852933 0.0239809 -6.40426 0.37151 -0.111975
3.37925 -0.196621 -0.78148 7 -0.225815 0.0118795 -0.974098 -3.37925 0.196621 0.78148
6.38436 -0.372592 0.33516 28 -0.79548 -0.601757 0.0714181 -6.38436 0.372592 -0.33516
6.38491 -0.375979 0.785326 35 -0.834919 -0.550304 -0.00875369 -6.38491 0.375979 -0.785326
6.38311 -0.378108 1.01276 27 -0.834919 -0.550304 -0.00875369 -6.38311 0.378108 -1.01276
6.40818 -0.380716 -0.561632 23 0.0861903 -0.00518625 0.996265 -6.40818 0.380716 0.561632
6.40975 -0.383055 -0.33652 27 0.052198 -0.00296443 0.998632 -6.40975 0.383055 0.33652
6.39754 -0.383446 -0.11187 22 -0.996067 -0.0852933 0.0239809 -6.39754 0.383446 0.11187
4.80268 -0.299634 -0.762149 8 0.155668 -0.0110968 0.987747 -4.80268 0.299634 0.762149
6.07831 -0.38135 -0.74779 7 0.118857 -0.00745456 0.992883 -6.07831 0.38135 0.74779
6.40681 -0.403082 -0.561632 23 0.0861903 -0.00518625 0.996265 -6.40681 0.403082 0.561632
6.40838 -0.405427 -0.33652 25 0.052198 -0.00296443 0.998632 -6.40838 0.405427 0.33652
6.39655 -0.405799 1.47973 28 -0.924356 -0.378246 -0.0499675 -6.39655 0.405799 -1.47973
6.41748 -0.419499 0.337044 25 -0.0526229 0.00366594 0.998608 -6.41748 0.419499 -0.337044
3.971 -0.260273 -0.77354 6 0.17465 -0.0179695 0.984467 -3.971 0.260273 0.77354
4.81152 -0.316207 -0.763713 8 0.155668 -0.0110968 0.987747 -4.81152 0.316207 0.763713
6.41776 -0.425142 1.0187 26 0.155537 -0.011512 -0.987763 -6.41776 0.425142 -1.0187
6.42525 -0.426764 -0.563375 23 0.085565 -0.00698919 0.996308 -6.42525 0.426764 0.563375
6.40181 -0.425208 1.24713 31 -0.192582 0.0122241 0.981205 -6.40181 0.425208 -1.24713
6.41072 -0.428047 1.48333 28 -0.924356 -0.378246 -0.0499675 -6.41072 0.428047 -1.48333
6.41865 -0.429702 -0.112289 20 -0.96194 -0.273197 -0.00584871 -6.41865 0.429702 0.112289
6.42396 -0.440194 0.112394 27 -0.96194 -0.273197 -0.00584871 -6.42396 0.440194 -0.112394
3.38089 -0.232265 -0.78238 7 -0.248894 0.0199892 -0.968324 -3.38089 0.232265 0.78238
6.0835 -0.423266 -0.748765 7 0.118857 -0.00745456 0.992883 -6.0835 0.423266 0.748765
6.42215 -0.447954 1.01964 26 0.155537 -0.011512 -0.987763 -6.42215 0.447954 -1.01964
