# .PCD v.7 - Point Cloud Data file format
VERSION .7
FIELDS x y z intensity normals observationDirections
SIZE 4 4 4 4 4 4
TYPE F F F F F F
COUNT 1 1 1 1 3 3
WIDTH 546
HEIGHT 1
POINTS 546
DATA ascii
2.91411 0.923849 -0.375358 55 -0.199903 -0.979602 0.0204523 -2.91411 -0.923849 0.375358
2.89059 0.915839 0.480254 56 -0.122022 -0.992441 0.0130782 -2.89059 -0.915839 -0.480254
2.90219 0.919514 -0.266348 61 -0.252905 -0.967265 0.020943 -2.90219 -0.919514 0.266348
2.89921 0.918013 0.591126 54 -0.182492 -0.0589065 0.981441 -2.89921 -0.918013 -0.591126
2.92293 0.924963 -0.160671 56 -0.0776624 -0.996037 -0.0433387 -2.92293 -0.924963 0.160671
2.89482 0.915512 0.700947 56 0.21467 0.0650968 -0.974515 -2.89482 -0.915512 -0.700947
2.9211 0.923262 -0.0534742 56 -0.0776624 -0.996037 -0.0433387 -2.9211 -0.923262 0.0534742
2.91492 0.916274 0.0533346 50 -0.0776624 -0.996037 -0.0433387 -2.91492 -0.916274 -0.0533346
2.92565 0.917967 0.268265 72 -0.174304 -0.983876 0.0400716 -2.92565 -0.917967 -0.268265
2.56532 0.804415 -0.425815 6 -0.150903 -0.0452351 -0.987513 -2.56532 -0.804415 0.425815
2.93626 0.919604 -0.377795 34 -0.199903 -0.979602 0.0204523 -2.93626 -0.919604 0.377795
2.91926 0.913163 0.594561 51 -0.182492 -0.0589065 0.981441 -2.91926 -0.913163 -0.594561
2.94721 0.920212 -0.053893 58 -0.0776624 -0.996037 -0.0433387 -2.94721 -0.920212 0.053893
2.91561 0.909787 0.818386 61 0.247391 0.0753355 -0.965983 -2.91561 -0.909787 -0.818386
2.93719 0.912022 0.0536836 51 -0.123871 -0.991457 0.0408636 -2.93719 -0.912022 -0.0536836
2.94919 0.914621 0.161823 60 -0.123871 -0.991457 0.0408636 -2.94919 -0.914621 -0.161823
2.95548 0.916005 0.270706 72 -0.174304 -0.983876 0.0400716 -2.95548 -0.916005 -0.270706
2.57 0.796041 -0.426128 5 -0.150079 -0.0466092 -0.987575 -2.57 -0.796041 0.426128
2.94583 0.90907 0.711745 61 0.21467 0.0650968 -0.974515 -2.94583 -0.90907 -0.711745
2.97334 0.916991 -0.0543119 56 -0.0776624 -0.996037 -0.0433387 -2.97334 -0.916991 0.0543119
2.96712 0.909975 0.0541723 53 -0.123871 -0.991457 0.0408636 -2.96712 -0.909975 -0.0541723
2.96574 0.908415 0.162556 55 -0.174304 -0.983876 0.0400716 -2.96574 -0.908415 -0.162556
2.98534 0.91385 0.273146 70 -0.329232 -0.919213 -0.215995 -2.98534 -0.91385 -0.273146
2.57843 0.788798 -0.427066 6 -0.150079 -0.0466092 -0.987575 -2.57843 -0.788798 0.427066
2.96143 0.9054 0.380232 58 -0.122022 -0.992441 0.0130782 -2.96143 -0.9054 -0.380232
2.95589 0.903145 -0.379501 16 0.116082 0.0346403 0.992635 -2.95589 -0.903145 0.379501
2.99182 0.911267 -0.0545911 56 -0.125448 -0.992078 -0.00658787 -2.99182 -0.911267 0.0545911
3.00949 0.909765 0.275064 66 -0.329232 -0.919213 -0.215995 -3.00949 -0.909765 -0.275064
2.57361 0.777507 -0.425815 6 -0.150079 -0.0466092 -0.987575 -2.57361 -0.777507 0.425815
2.97685 0.89763 0.492456 57 -0.00422111 -0.999053 0.0433093 -2.97685 -0.89763 -0.492456
3.0044 0.905936 -0.274541 60 -0.0836372 -0.0253396 -0.996174 -3.0044 -0.905936 0.274541
3.01015 0.906525 -0.164754 51 -0.199307 -0.978472 0.0535635 -3.01015 -0.906525 0.164754
3.02176 0.90255 0.165277 55 -0.053175 -0.998572 -0.00521873 -3.02176 -0.90255 -0.165277
2.25548 0.673675 -0.45756 6 -0.182369 -0.0564282 -0.98161 -2.25548 -0.673675 0.45756
3.02792 0.903812 0.276458 67 -0.053175 -0.998572 -0.00521873 -3.02792 -0.903812 -0.276458
2.56873 0.766262 -0.424563 6 -0.150903 -0.0452351 -0.987513 -2.56873 -0.766262 0.424563
3.01334 0.898315 0.386082 61 0.0359899 -0.999028 0.0254484 -3.01334 -0.898315 -0.386082
3.01026 0.896255 0.497462 58 -0.00422111 -0.999053 0.0433093 -3.01026 -0.896255 -0.497462
3.01327 0.897151 -0.275064 49 -0.0836372 -0.0253396 -0.996174 -3.01327 -0.897151 0.275064
3.03334 0.902549 0.615168 54 -0.00422111 -0.999053 0.0433093 -3.03334 -0.902549 -0.615168
3.00749 0.893717 0.724342 55 -0.0999311 -0.994992 0.00208559 -3.00749 -0.893717 -0.724342
3.0422 0.903452 -0.0553939 52 -0.125448 -0.992078 -0.00658787 -3.0422 -0.903452 0.0553939
3.0498 0.899339 0.166638 56 -0.053175 -0.998572 -0.00521873 -3.0498 -0.899339 -0.166638
2.55813 0.753383 -0.422373 6 -0.150903 -0.0452351 -0.987513 -2.55813 -0.753383 0.422373
2.96709 0.872701 -0.379745 8 0.116082 0.0346403 0.992635 -2.96709 -0.872701 0.379745
3.06431 0.899552 -0.16737 55 -0.199307 -0.978472 0.0535635 -3.06431 -0.899552 0.16737
3.0293 0.887552 0.845821 55 -0.976225 -0.188456 -0.107092 -3.0293 -0.887552 -0.845821
3.05867 0.890365 0.166952 56 0.0359899 -0.999028 0.0254484 -3.05867 -0.890365 -0.166952
2.2639 0.659011 -0.458323 7 -0.184107 -0.0547919 -0.981378 -2.2639 -0.659011 0.458323
2.56454 0.745553 -0.422999 5 -0.150903 -0.0452351 -0.987513 -2.56454 -0.745553 0.422999
3.05766 0.888334 0.390957 52 -0.0634527 -0.997932 0.0102631 -3.05766 -0.888334 -0.390957
3.07146 0.891179 0.506535 55 -0.0634527 -0.997932 0.0102631 -3.07146 -0.891179 -0.506535
3.09838 0.896646 -0.0563015 51 -0.199307 -0.978472 0.0535635 -3.09838 -0.896646 0.0563015
3.0695 0.887706 0.856173 55 -0.0999311 -0.994992 0.00208559 -3.0695 -0.887706 -0.856173
3.09402 0.890118 0.0561968 48 -0.0167832 -0.00512203 0.999846 -3.09402 -0.890118 -0.0561968
2.58231 0.740954 -0.425502 5 -0.150903 -0.0452351 -0.987513 -2.58231 -0.740954 0.425502
3.09354 0.885891 0.509664 53 -0.32182 -0.94608 -0.0369296 -3.09354 -0.885891 -0.509664
3.11061 0.890778 -0.283082 38 -0.696895 -0.534775 0.477862 -3.11061 -0.890778 0.283082
3.09359 0.88532 0.625472 54 -0.449748 -0.884222 -0.12601 -3.09359 -0.88532 -0.625472
3.09163 0.883593 0.742338 55 -0.651292 -0.758376 -0.0261601 -3.09163 -0.883593 -0.742338
3.10324 0.879886 0.169045 56 -0.102062 -0.991727 0.0778524 -3.10324 -0.879886 -0.169045
2.58488 0.731935 -0.425502 5 -0.159802 -0.0401941 -0.98633 -2.58488 -0.731935 0.425502
3.12109 0.88318 0.398269 52 -0.138686 -0.989268 -0.0459837 -3.12109 -0.88318 -0.398269
2.97416 0.841043 -0.379501 6 -0.147544 0.0418248 0.988171 -2.97416 -0.841043 0.379501
3.11563 0.880458 0.512792 55 -0.32182 -0.94608 -0.0369296 -3.11563 -0.880458 -0.512792
3.12712 0.883707 -0.284302 35 -0.696895 -0.534775 0.477862 -3.12712 -0.883707 0.284302
3.12397 0.879872 0.869632 100 -0.938941 0.275912 -0.205578 -3.12397 -0.879872 -0.869632
2.26312 0.633151 -0.456797 7 0.182872 0.0500412 0.981862 -2.26312 -0.633151 0.456797
3.14362 0.876532 -0.285522 34 -0.286759 -0.255596 0.923277 -3.14362 -0.876532 0.285522
3.16588 0.882145 0.638829 99 0.183697 0.0507582 -0.981672 -3.16588 -0.882145 -0.638829
3.1747 0.884004 -0.172709 51 -0.146907 -0.989049 -0.0141303 -3.1747 -0.884004 0.172709
3.16524 0.880775 -0.0573486 51 -0.154061 -0.987568 0.0312052 -3.16524 -0.880775 0.0573486
3.12314 0.868474 0.868597 100 -0.651292 -0.758376 -0.0261601 -3.12314 -0.868474 -0.868597
3.16469 0.875269 0.0573137 46 0.0167851 0.00437085 -0.99985 -3.16469 -0.875269 -0.0573137
3.18024 0.878971 0.172918 53 -0.0640073 -0.99791 0.00889996 -3.18024 -0.878971 -0.172918
2.26899 0.626688 -0.45756 6 0.182872 0.0500412 0.981862 -2.26899 -0.626688 0.45756
3.18624 0.87943 0.289183 78 -0.0640073 -0.99791 0.00889996 -3.18624 -0.87943 -0.289183
3.15933 0.869037 0.63692 100 0.183697 0.0507582 -0.981672 -3.15933 -0.869037 -0.63692
3.138 0.862581 0.751337 99 -0.938941 0.275912 -0.205578 -3.138 -0.862581 -0.751337
3.11483 0.855043 0.865491 99 -0.651292 -0.758376 -0.0261601 -3.11483 -0.855043 -0.865491
3.19458 0.872143 0.0578024 61 0.0167851 0.00437085 -0.99985 -3.19458 -0.872143 -0.0578024
2.56929 0.699505 -0.421747 5 -0.165748 -0.0416518 -0.985288 -2.56929 -0.699505 0.421747
3.1835 0.866132 0.405094 100 -0.32182 -0.94608 -0.0369296 -3.1835 -0.866132 -0.405094
3.23012 0.877604 -0.292843 43 -0.286759 -0.255596 0.923277 -3.23012 -0.877604 0.292843
3.21519 0.872342 -0.174593 63 -0.696895 -0.534775 0.477862 -3.21519 -0.872342 0.174593
3.23293 0.875944 -0.0584656 70 -0.146907 -0.989049 -0.0141303 -3.23293 -0.875944 0.0584656
3.12339 0.84568 0.867044 90 -0.250381 -0.0658324 0.965907 -3.12339 -0.84568 -0.867044
3.2364 0.869614 0.293192 100 -0.138686 -0.989268 -0.0459837 -3.2364 -0.869614 -0.293192
3.16707 0.848021 0.637302 83 0.183523 0.0484136 -0.981822 -3.16707 -0.848021 -0.637302
3.26838 0.874537 -0.177314 100 0.0504846 0.0132822 0.998637 -3.26838 -0.874537 0.177314
3.13265 0.837633 0.748637 91 0.213 0.056362 -0.975425 -3.13265 -0.837633 -0.748637
3.23925 0.860082 0.0585005 100 0.0167951 0.00445289 -0.999849 -3.23925 -0.860082 -0.0585005
3.20858 0.850738 0.173965 97 -0.0520902 -0.0128432 0.99856 -3.20858 -0.850738 -0.173965
2.26773 0.601278 -0.456034 6 0.182872 0.0500412 0.981862 -2.26773 -0.601278 0.456034
3.18371 0.842363 0.404362 95 0.116694 0.0307991 -0.99269 -3.18371 -0.842363 -0.404362
3.1627 0.835622 0.518111 95 -0.152436 -0.0390237 0.987543 -3.1627 -0.835622 -0.518111
3.24476 0.85488 -0.0585703 95 0.0167341 0.00431095 0.999851 -3.24476 -0.85488 0.0585703
3.23643 0.847251 0.0583958 93 0.0167951 0.00445289 -0.999849 -3.23643 -0.847251 -0.0583958
3.21346 0.840037 0.174069 91 -0.994546 -0.0830107 -0.0631492 -3.21346 -0.840037 -0.174069
2.27372 0.593955 -0.456797 6 0.184939 0.0466874 0.981641 -2.27372 -0.593955 0.456797
2.98317 0.777613 -0.378526 5 -0.119288 -0.0315036 -0.99236 -2.98317 -0.777613 0.378526
3.24773 0.843548 -0.0585703 92 0.0167341 0.00431095 0.999851 -3.24773 -0.843548 0.0585703
3.11337 0.808074 0.861867 89 -0.250381 -0.0658324 0.965907 -3.11337 -0.808074 -0.861867
3.22789 0.832388 0.0581863 94 0.0167951 0.00445289 -0.999849 -3.22789 -0.832388 -0.0581863
3.20878 0.826262 0.173651 92 -0.0520902 -0.0128432 0.99856 -3.20878 -0.826262 -0.173651
2.56744 0.660163 -0.41987 4 0.133664 0.0321743 0.990504 -2.56744 -0.660163 0.41987
3.17813 0.816595 0.4029 92 0.116694 0.0307991 -0.99269 -3.17813 -0.816595 -0.4029
3.26922 0.838786 -0.295284 88 0.0838525 0.0220724 0.996234 -3.26922 -0.838786 0.295284
3.155 0.808891 0.633104 88 0.183523 0.0484136 -0.981822 -3.155 -0.808891 -0.633104
3.25622 0.834238 -0.176163 94 0.0504846 0.0132822 0.998637 -3.25622 -0.834238 0.176163
3.13761 0.80327 0.747737 91 0.213 0.056362 -0.975425 -3.13761 -0.80327 -0.747737
3.25467 0.832631 -0.0586401 83 0.0167341 0.00431095 0.999851 -3.25467 -0.832631 0.0586401
3.20975 0.81398 0.289706 100 -0.994546 -0.0830107 -0.0631492 -3.20975 -0.81398 -0.289706
2.57739 0.653137 -0.421122 5 -0.165748 -0.0416518 -0.985288 -2.57739 -0.653137 0.421122
2.99635 0.758194 -0.379501 5 -0.119288 -0.0315036 -0.99236 -2.99635 -0.758194 0.379501
3.16758 0.800934 0.517485 95 -0.152436 -0.0390237 0.987543 -3.16758 -0.800934 -0.517485
3.25718 0.822378 -0.176058 100 0.0496556 0.0124844 0.998688 -3.25718 -0.822378 0.176058
3.11908 0.785774 0.861867 90 -0.998684 -0.0478182 0.0185581 -3.11908 -0.785774 -0.861867
3.22975 0.808859 0.0581165 78 0.0167851 0.00437085 -0.99985 -3.22975 -0.808859 -0.0581165
2.276 0.56916 -0.456034 7 0.184939 0.0466874 0.981641 -2.276 -0.56916 0.456034
3.2203 0.804702 0.290403 100 -0.931308 0.0434656 -0.36163 -3.2203 -0.804702 -0.290403
3.16639 0.789469 0.51686 95 -0.152436 -0.0390237 0.987543 -3.16639 -0.789469 -0.51686
3.28079 0.817387 -0.295807 82 -0.0848629 -0.0206107 -0.996179 -3.28079 -0.817387 0.295807
3.12788 0.778129 0.744138 87 0.214446 0.0530079 -0.975296 -3.12788 -0.778129 -0.744138
3.24862 0.807565 -0.0584307 83 0.0167341 0.00431095 0.999851 -3.24862 -0.807565 0.0584307
3.11792 0.774496 0.860832 89 -0.998684 -0.0478182 0.0185581 -3.11792 -0.774496 -0.860832
3.21135 0.79116 0.289357 100 -0.994546 -0.0830107 -0.0631492 -3.21135 -0.79116 -0.289357
2.58945 0.637468 -0.422373 5 -0.159802 -0.0401941 -0.98633 -2.58945 -0.637468 0.422373
2.98589 0.734511 -0.377551 5 0.114969 0.0265312 0.993015 -2.98589 -0.734511 0.377551
3.15362 0.774021 0.631196 86 0.182227 0.0445399 -0.982247 -3.15362 -0.774021 -0.631196
3.1172 0.764503 0.740989 85 -0.998684 -0.0478182 0.0185581 -3.1172 -0.764503 -0.740989
3.22338 0.784583 0.0579071 81 -0.0173516 -0.00397606 0.999842 -3.22338 -0.784583 -0.0579071
2.59539 0.629809 -0.422999 4 0.148041 0.0339872 0.988397 -2.59539 -0.629809 0.422999
2.99616 0.725953 -0.378526 5 -0.119952 -0.0283131 -0.992376 -2.99616 -0.725953 0.378526
3.15808 0.764021 0.631578 92 0.182227 0.0445399 -0.982247 -3.15808 -0.764021 -0.631578
3.24238 0.782618 -0.0582212 86 0.016913 0.00406632 0.999849 -3.24238 -0.782618 0.0582212
3.10621 0.749177 0.856173 94 -0.254125 -0.0597375 0.965325 -3.10621 -0.749177 -0.856173
3.20277 0.767735 0.0574882 82 -0.996886 0.0463623 -0.0637875 -3.20277 -0.767735 -0.0574882
3.21273 0.768938 0.173127 88 -0.0516844 -0.0115017 0.998597 -3.21273 -0.768938 -0.173127
2.29119 0.548377 -0.457942 6 0.185095 0.0429105 0.981783 -2.29119 -0.548377 0.457942
2.59373 0.619827 -0.422373 4 -0.159802 -0.0401941 -0.98633 -2.59373 -0.619827 0.422373
3.17232 0.757509 0.400463 92 -0.97519 -0.035165 -0.218557 -3.17232 -0.757509 -0.400463
2.99867 0.715491 -0.378526 5 -0.119952 -0.0283131 -0.992376 -2.99867 -0.715491 0.378526
3.15513 0.752241 0.513731 86 -0.994911 0.0402842 -0.0923576 -3.15513 -0.752241 -0.513731
3.24626 0.773968 -0.291972 82 -0.286759 -0.255596 0.923277 -3.24626 -0.773968 0.291972
3.1359 0.747077 0.626617 86 -0.189529 -0.0417016 0.980989 -3.1359 -0.747077 -0.626617
3.10693 0.737884 0.855656 92 -0.254125 -0.0597375 0.965325 -3.10693 -0.737884 -0.855656
3.20762 0.755885 0.172709 87 -0.0516844 -0.0115017 0.998597 -3.20762 -0.755885 -0.172709
3.00888 0.706835 -0.379501 5 -0.119952 -0.0283131 -0.992376 -3.00888 -0.706835 0.379501
3.13658 0.735679 0.626235 92 -0.189529 -0.0417016 0.980989 -3.13658 -0.735679 -0.626235
3.25132 0.761992 -0.175011 100 0.0496556 0.0124844 0.998688 -3.25132 -0.761992 0.175011
3.23803 0.757685 -0.0580467 78 0.016913 0.00406632 0.999849 -3.23803 -0.757685 0.0580467
3.10572 0.726155 0.854621 92 -0.254125 -0.0597375 0.965325 -3.10572 -0.726155 -0.854621
3.19078 0.74017 0.171662 85 -0.0519705 -0.0111198 0.998587 -3.19078 -0.74017 -0.171662
3.20254 0.74231 0.287614 100 0.0821569 0.0193489 -0.996432 -3.20254 -0.74231 -0.287614
2.59414 0.600812 -0.421747 4 -0.165748 -0.0416518 -0.985288 -2.59414 -0.600812 0.421747
3.16206 0.731763 0.398513 92 0.118833 0.0262939 -0.992566 -3.16206 -0.731763 -0.398513
3.15453 0.728862 0.512792 90 -0.97519 -0.035165 -0.218557 -3.15453 -0.728862 -0.512792
3.27488 0.756668 -0.294063 90 -0.0856146 -0.0187422 -0.996152 -3.27488 -0.756668 0.294063
3.11201 0.716177 0.855656 90 -0.254125 -0.0597375 0.965325 -3.11201 -0.716177 -0.855656
3.21843 0.735937 0.0576278 81 -0.0173516 -0.00397606 0.999842 -3.21843 -0.735937 -0.0576278
3.1914 0.728583 0.171557 91 -0.0519705 -0.0111198 0.998587 -3.1914 -0.728583 -0.171557
2.2815 0.520857 -0.454889 6 -0.239155 -0.0451939 -0.969929 -2.2815 -0.520857 0.454889
3.20317 0.730683 0.28744 100 0.0821569 0.0193489 -0.996432 -3.20317 -0.730683 -0.28744
3.16459 0.720721 0.398513 92 -0.907386 -0.220982 -0.357517 -3.16459 -0.720721 -0.398513
3.1455 0.715219 0.510915 90 -0.152951 -0.033639 0.987661 -3.1455 -0.715219 -0.510915
3.14547 0.714633 0.626998 92 0.182227 0.0445399 -0.982247 -3.14547 -0.714633 -0.626998
3.24682 0.737064 -0.174488 94 -0.975104 -0.221543 -0.00957413 -3.24682 -0.737064 0.174488
3.11072 0.704455 0.854621 89 -0.253676 -0.0553744 0.965703 -3.11072 -0.704455 -0.854621
3.21317 0.722941 0.0574882 81 0.00805952 0.00481552 -0.999956 -3.21317 -0.722941 -0.0574882
2.2833 0.51289 -0.454889 6 -0.239155 -0.0451939 -0.969929 -2.2833 -0.51289 0.454889
3.01224 0.67442 -0.379014 5 -0.119952 -0.0283131 -0.992376 -3.01224 -0.67442 0.379014
3.1154 0.695235 0.73694 87 -0.963807 0.0852823 -0.252592 -3.1154 -0.695235 -0.73694
3.22236 0.718512 -0.0576278 82 -0.999905 0.0106032 -0.00876096 -3.22236 -0.718512 0.0576278
2.287 0.505341 -0.45527 7 0.185095 0.0429105 0.981783 -2.287 -0.505341 0.45527
3.18679 0.703578 0.285522 100 0.0848303 0.0183319 -0.996227 -3.18679 -0.703578 -0.285522
3.00295 0.66134 -0.377551 6 0.114969 0.0265312 0.993015 -3.00295 -0.66134 0.377551
3.1427 0.691543 0.509664 88 -0.152951 -0.033639 0.987661 -3.1427 -0.691543 -0.509664
3.24018 0.711808 -0.17386 83 -0.998936 0.0460915 -0.00182482 -3.24018 -0.711808 0.17386
3.12162 0.685191 0.737839 91 -0.998684 -0.0478182 0.0185581 -3.12162 -0.685191 -0.737839
3.08914 0.676932 0.847374 92 -0.253676 -0.0553744 0.965703 -3.08914 -0.676932 -0.847374
3.18156 0.690204 0.284825 100 0.0848303 0.0183319 -0.996227 -3.18156 -0.690204 -0.284825
3.15645 0.684179 0.396563 90 0.118833 0.0262939 -0.992566 -3.15645 -0.684179 -0.396563
3.02076 0.654214 -0.379501 5 -0.121363 -0.0254247 -0.992283 -3.02076 -0.654214 0.379501
3.2463 0.701877 -0.290577 84 0.0847509 0.0175712 0.996247 -3.2463 -0.701877 0.290577
3.12795 0.675715 0.622037 94 -0.189529 -0.0417016 0.980989 -3.12795 -0.675715 -0.622037
3.23691 0.698662 -0.173546 88 -0.998936 0.0460915 -0.00182482 -3.23691 -0.698662 0.173546
3.25848 0.692611 -0.291449 87 -0.0856146 -0.0187422 -0.996152 -3.25848 -0.692611 0.291449
3.10702 0.658153 0.850997 94 -0.253676 -0.0553744 0.965703 -3.10702 -0.658153 -0.850997
3.2073 0.674716 0.057209 78 0.00805952 0.00481552 -0.999956 -3.2073 -0.674716 -0.057209
3.1863 0.667974 0.284825 100 0.0848303 0.0183319 -0.996227 -3.1863 -0.667974 -0.284825
2.59456 0.543921 -0.41987 4 0.148041 0.0339872 0.988397 -2.59456 -0.543921 0.41987
3.15726 0.661312 0.396075 87 0.118833 0.0262939 -0.992566 -3.15726 -0.661312 -0.396075
3.25113 0.679196 -0.290577 84 0.0847509 0.0175712 0.996247 -3.25113 -0.679196 0.290577
3.21446 0.669781 -0.0573137 91 -0.988869 -0.143525 0.039237 -3.21446 -0.669781 0.0573137
3.09795 0.64494 0.847891 96 -0.979923 0.145432 -0.136387 -3.09795 -0.64494 -0.847891
2.28422 0.471375 -0.453362 6 -0.203752 -0.0379547 -0.978287 -2.28422 -0.471375 0.453362
3.02744 0.622546 -0.379501 5 -0.121363 -0.0254247 -0.992283 -3.02744 -0.622546 0.379501
3.1327 0.643623 0.506535 88 0.152111 0.0308921 -0.987881 -3.1327 -0.643623 -0.506535
3.24177 0.665439 -0.289531 74 0.0847509 0.0175712 0.996247 -3.24177 -0.665439 0.289531
3.10415 0.636064 0.731541 91 -0.912751 0.39482 -0.104897 -3.10415 -0.636064 -0.731541
3.2207 0.659357 -0.0573835 83 -0.999905 0.0106032 -0.00876096 -3.2207 -0.659357 0.0573835
3.1828 0.645235 0.170197 97 -0.0540431 -0.0094076 0.998494 -3.1828 -0.645235 -0.170197
2.28978 0.46378 -0.454125 6 -0.188483 -0.0379821 -0.981342 -2.28978 -0.46378 0.454125
3.1694 0.641368 0.282908 100 -0.087762 -0.0161276 0.996011 -3.1694 -0.641368 -0.282908
2.59451 0.524558 -0.419244 4 0.148041 0.0339872 0.988397 -2.59451 -0.524558 0.419244
3.0296 0.611975 -0.379501 5 -0.121363 -0.0254247 -0.992283 -3.0296 -0.611975 0.379501
3.23626 0.652543 -0.288834 75 -0.998936 0.0460915 -0.00182482 -3.23626 -0.652543 0.288834
3.21906 0.647322 -0.0573137 86 -0.988869 -0.143525 0.039237 -3.21906 -0.647322 0.0573137
3.08533 0.619872 0.843232 92 -0.976225 -0.188456 -0.107092 -3.08533 -0.619872 -0.843232
3.19273 0.636233 0.056825 77 0.0166926 0.00333732 -0.999855 -3.19273 -0.636233 -0.056825
3.17731 0.632005 0.169778 97 -0.0540431 -0.0094076 0.998494 -3.17731 -0.632005 -0.169778
2.29908 0.457316 -0.455652 6 -0.190776 -0.0347583 -0.981018 -2.29908 -0.457316 0.455652
2.58857 0.513961 -0.417993 4 0.133664 0.0321743 0.990504 -2.58857 -0.513961 0.417993
3.14465 0.623798 0.393638 95 0.119317 0.0239997 -0.992566 -3.14465 -0.623798 -0.393638
3.03961 0.602412 -0.380476 4 -0.121363 -0.0254247 -0.992283 -3.03961 -0.602412 0.380476
3.24058 0.641065 -0.289008 79 0.0847509 0.0175712 0.996247 -3.24058 -0.641065 0.289008
3.10653 0.614545 0.61555 88 -0.889834 -0.45559 -0.0251602 -3.10653 -0.614545 -0.61555
3.21335 0.635094 -0.171662 82 -0.988869 -0.143525 0.039237 -3.21335 -0.635094 0.171662
3.0819 0.607438 0.84168 99 -0.976225 -0.188456 -0.107092 -3.0819 -0.607438 -0.84168
3.18565 0.620959 0.283953 100 0.0856088 0.0160335 -0.9962 -3.18565 -0.620959 -0.283953
3.02221 0.588006 -0.378039 4 0.115606 0.0208377 0.993077 -3.02221 -0.588006 0.378039
3.22546 0.625213 -0.172185 83 -0.975659 0.206156 -0.0747587 -3.22546 -0.625213 0.172185
3.21968 0.623511 -0.0572439 86 -0.988869 -0.143525 0.039237 -3.21968 -0.623511 0.0572439
3.17369 0.60886 0.169359 100 -0.0540431 -0.0094076 0.998494 -3.17369 -0.60886 -0.169359
2.29451 0.439777 -0.454125 6 -0.188483 -0.0379821 -0.981342 -2.29451 -0.439777 0.454125
3.17399 0.607768 0.282733 100 0.0856088 0.0160335 -0.9962 -3.17399 -0.607768 -0.282733
3.14503 0.601085 0.393151 97 -0.120287 -0.0215613 0.992505 -3.14503 -0.601085 -0.393151
3.02814 0.578196 -0.378526 5 0.115606 0.0208377 0.993077 -3.02814 -0.578196 0.378526
3.12198 0.596114 0.503406 92 -0.889834 -0.45559 -0.0251602 -3.12198 -0.596114 -0.503406
3.23508 0.617127 -0.288137 74 -0.998936 0.0460915 -0.00182482 -3.23508 -0.617127 0.288137
3.12038 0.59468 0.617458 97 -0.889834 -0.45559 -0.0251602 -3.12038 -0.59468 -0.617458
3.21966 0.613019 -0.171767 83 -0.988869 -0.143525 0.039237 -3.21966 -0.613019 0.171767
3.08795 0.587384 0.725692 96 -0.967962 0.0435658 -0.247287 -3.08795 -0.587384 -0.725692
3.08786 0.586807 0.842197 100 -0.257132 -0.0458973 0.965286 -3.08786 -0.586807 -0.842197
3.19322 0.60221 0.0567203 78 0.0166926 0.00333732 -0.999855 -3.19322 -0.60221 -0.0567203
3.16991 0.596669 0.169045 95 0.0503212 0.00970545 -0.998686 -3.16991 -0.596669 -0.169045
3.16434 0.594478 0.281687 100 -0.087762 -0.0161276 0.996011 -3.16434 -0.594478 -0.281687
3.02614 0.56742 -0.378039 5 0.115606 0.0208377 0.993077 -3.02614 -0.56742 0.378039
3.12234 0.58433 0.617458 94 -0.889834 -0.45559 -0.0251602 -3.12234 -0.58433 -0.617458
3.2042 0.597913 -0.0568948 86 -0.996886 0.0463623 -0.0637875 -3.2042 -0.597913 0.0568948
3.0728 0.572839 0.837538 99 -0.262682 -0.0435543 0.963899 -3.0728 -0.572839 -0.837538
2.30517 0.425574 -0.455652 6 -0.190776 -0.0347583 -0.981018 -2.30517 -0.425574 0.455652
3.15846 0.582536 0.28099 100 -0.087762 -0.0161276 0.996011 -3.15846 -0.582536 -0.28099
2.59736 0.478579 -0.418306 4 0.153705 0.0266319 0.987758 -2.59736 -0.478579 0.418306
3.14514 0.578944 0.392663 95 -0.120287 -0.0215613 0.992505 -3.14514 -0.578944 -0.392663
3.03982 0.559009 -0.379501 5 -0.488132 -0.0903627 0.868079 -3.03982 -0.559009 0.379501
3.13384 0.575731 0.504658 88 -0.965414 0.105221 -0.238548 -3.13384 -0.575731 -0.504658
3.10505 0.569883 0.613642 94 -0.995115 0.0870663 -0.0465271 -3.10505 -0.569883 -0.613642
3.18357 0.577405 0.056476 75 -0.0172734 -0.00309873 0.999846 -3.18357 -0.577405 -0.056476
3.17006 0.573812 0.168836 92 -0.0540431 -0.0094076 0.998494 -3.17006 -0.573812 -0.168836
3.16832 0.572925 0.281687 100 -0.087762 -0.0161276 0.996011 -3.16832 -0.572925 -0.281687
3.03394 0.546985 -0.378526 5 0.115606 0.0208377 0.993077 -3.03394 -0.546985 0.378526
3.22558 0.580957 -0.286742 77 0.0855168 0.0145371 0.996231 -3.22558 -0.580957 0.286742
3.10316 0.558346 0.612879 94 -0.965414 0.105221 -0.238548 -3.10316 -0.558346 -0.612879
3.21204 0.577359 -0.171034 91 -0.051748 -0.00914009 -0.998618 -3.21204 -0.577359 0.171034
3.21616 0.576941 -0.0570345 86 0.0171399 0.00307248 0.999848 -3.21616 -0.576941 0.0570345
2.30422 0.408784 -0.454889 6 -0.190776 -0.0347583 -0.981018 -2.30422 -0.408784 0.454889
3.17422 0.562558 0.282036 100 0.0856088 0.0160335 -0.9962 -3.17422 -0.562558 -0.282036
3.13347 0.554206 0.390713 95 -0.120287 -0.0215613 0.992505 -3.13347 -0.554206 -0.390713
3.23151 0.570385 -0.287091 74 0.0855168 0.0145371 0.996231 -3.23151 -0.570385 0.287091
3.11089 0.548532 0.614023 92 -0.986767 0.110656 -0.118518 -3.11089 -0.548532 -0.614023
3.2023 0.563501 -0.0567552 83 0.0171399 0.00307248 0.999848 -3.2023 -0.563501 0.0567552
3.07663 0.540832 0.837021 100 -0.257132 -0.0458973 0.965286 -3.07663 -0.540832 -0.837021
3.18546 0.555379 0.0564411 78 -0.0172734 -0.00309873 0.999846 -3.18546 -0.555379 -0.0564411
3.15816 0.549482 0.167998 91 0.0503212 0.00970545 -0.998686 -3.15816 -0.549482 -0.167998
3.16831 0.55011 0.281339 100 -0.087762 -0.0161276 0.996011 -3.16831 -0.55011 -0.281339
2.60215 0.451807 -0.418306 4 0.153705 0.0266319 0.987758 -2.60215 -0.451807 0.418306
3.13138 0.543135 0.390226 100 -0.972387 0.198269 -0.123096 -3.13138 -0.543135 -0.390226
3.02976 0.524966 -0.377551 4 0.119104 0.019676 0.992687 -3.02976 -0.524966 0.377551
3.1944 0.55062 -0.0565807 78 0.0171399 0.00307248 0.999848 -3.1944 -0.55062 0.0565807
3.18343 0.543583 0.0563713 81 -0.965182 0.179006 -0.190738 -3.18343 -0.543583 -0.0563713
2.29921 0.391772 -0.453362 6 -0.203752 -0.0379547 -0.978287 -2.29921 -0.391772 0.453362
3.05506 0.518371 -0.380476 5 -0.488132 -0.0903627 0.868079 -3.05506 -0.518371 0.380476
3.1068 0.526035 0.612497 92 -0.965414 0.105221 -0.238548 -3.1068 -0.526035 -0.612497
3.21782 0.544254 -0.171034 93 -0.998748 -0.0226651 0.0446041 -3.21782 -0.544254 0.171034
3.09363 0.522692 0.724342 98 -0.986767 0.110656 -0.118518 -3.09363 -0.522692 -0.724342
3.16944 0.530382 0.056092 81 -0.0176696 -0.00264025 0.99984 -3.16944 -0.530382 -0.056092
2.30831 0.385035 -0.454889 6 -0.190776 -0.0347583 -0.981018 -2.30831 -0.385035 0.454889
3.15233 0.525258 0.279596 100 0.0858356 0.0140139 -0.996211 -3.15233 -0.525258 -0.279596
3.03718 0.504981 -0.378039 4 0.115606 0.0208377 0.993077 -3.03718 -0.504981 0.378039
3.11205 0.51687 0.499652 92 -0.98884 0.106134 -0.104556 -3.11205 -0.51687 -0.499652
3.20773 0.532188 -0.284476 72 -0.998748 -0.0226651 0.0446041 -3.20773 -0.532188 0.284476
3.20005 0.529192 -0.0566156 86 -0.0177608 -0.00266209 -0.999839 -3.20005 -0.529192 0.0566156
3.05916 0.505344 0.830809 100 -0.967962 0.0435658 -0.247287 -3.05916 -0.505344 -0.830809
3.16732 0.518671 0.0560222 78 -0.0176696 -0.00264025 0.99984 -3.16732 -0.518671 -0.0560222
3.16759 0.517577 0.168208 95 0.0516254 0.00825104 -0.998632 -3.16759 -0.517577 -0.168208
2.30189 0.375712 -0.453362 6 -0.203752 -0.0379547 -0.978287 -2.30189 -0.375712 0.453362
2.60666 0.424989 -0.418306 3 0.153705 0.0266319 0.987758 -2.60666 -0.424989 0.418306
3.12113 0.508309 0.388276 97 -0.98884 0.106134 -0.104556 -3.12113 -0.508309 -0.388276
3.04677 0.495653 -0.379014 4 -0.488132 -0.0903627 0.868079 -3.04677 -0.495653 0.379014
3.11773 0.506638 0.500277 92 -0.98884 0.106134 -0.104556 -3.11773 -0.506638 -0.500277
3.21154 0.521306 -0.284651 75 -0.998748 -0.0226651 0.0446041 -3.21154 -0.521306 0.284651
3.0949 0.50182 0.609444 92 0.187233 0.0292636 -0.98188 -3.0949 -0.50182 -0.609444
3.09134 0.500688 0.722993 100 -0.986767 0.110656 -0.118518 -3.09134 -0.500688 -0.722993
3.17315 0.507688 0.056092 78 -0.965182 0.179006 -0.190738 -3.17315 -0.507688 -0.056092
3.1458 0.502187 0.166952 95 0.0510561 0.0077866 -0.998665 -3.1458 -0.502187 -0.166952
3.12297 0.496867 0.388276 100 0.11989 0.018552 -0.992614 -3.12297 -0.496867 -0.388276
3.03288 0.481988 -0.377064 5 0.119104 0.019676 0.992687 -3.03288 -0.481988 0.377064
3.09866 0.490778 0.609826 97 0.187233 0.0292636 -0.98188 -3.09866 -0.490778 -0.609826
3.19976 0.506221 -0.169778 93 -0.974159 0.219608 -0.0527898 -3.19976 -0.506221 0.169778
3.08353 0.487833 0.720743 100 -0.222667 -0.0356612 0.974242 -3.08353 -0.487833 -0.720743
3.19585 0.505031 -0.056476 88 -0.0177608 -0.00266209 -0.999839 -3.19585 -0.505031 0.056476
3.17499 0.496055 0.056092 78 -0.965182 0.179006 -0.190738 -3.17499 -0.496055 -0.056092
2.30064 0.358626 -0.452599 6 -0.194531 -0.0275932 -0.980508 -2.30064 -0.358626 0.452599
3.15381 0.491054 0.279247 100 0.0858356 0.0140139 -0.996211 -3.15381 -0.491054 -0.279247
3.07374 0.474742 0.718044 98 -0.222667 -0.0356612 0.974242 -3.07374 -0.474742 -0.718044
3.18771 0.492345 -0.0563015 80 0.0169651 0.00245425 0.999853 -3.18771 -0.492345 0.0563015
3.17267 0.48492 0.0560222 81 -0.965182 0.179006 -0.190738 -3.17267 -0.48492 -0.0560222
3.09998 0.469383 0.609444 92 0.187233 0.0292636 -0.98188 -3.09998 -0.469383 -0.609444
3.20708 0.485026 -0.169987 93 -0.993579 -0.106728 0.0375554 -3.20708 -0.485026 0.169987
3.18546 0.480619 -0.0562317 82 0.0169651 0.00245425 0.999853 -3.18546 -0.480619 0.0562317
3.15852 0.471482 0.055743 82 -0.0176696 -0.00264025 0.99984 -3.15852 -0.471482 -0.055743
2.29914 0.342378 -0.451836 6 -0.194531 -0.0275932 -0.980508 -2.29914 -0.342378 0.451836
2.59678 0.385774 -0.415803 4 -0.147544 0.0418248 0.988171 -2.59678 -0.385774 0.415803
3.12015 0.46297 0.387301 100 0.11989 0.018552 -0.992614 -3.12015 -0.46297 -0.387301
3.06132 0.453695 -0.379989 4 -0.488132 -0.0903627 0.868079 -3.06132 -0.453695 0.379989
3.11286 0.460777 0.4984 100 -0.953044 0.299376 -0.0456275 -3.11286 -0.460777 -0.4984
3.09189 0.457122 0.607536 94 0.187233 0.0292636 -0.98188 -3.09189 -0.457122 -0.607536
3.08076 0.454378 0.718944 100 -0.222667 -0.0356612 0.974242 -3.08076 -0.454378 -0.718944
3.19305 0.47037 -0.0563364 86 0.0169651 0.00245425 0.999853 -3.19305 -0.47037 0.0563364
3.15619 0.459876 0.0556732 85 0.0172325 0.00235367 -0.999849 -3.15619 -0.459876 -0.0556732
2.31004 0.335763 -0.453744 7 0.182568 0.0267906 0.982828 -2.31004 -0.335763 0.453744
2.60593 0.377842 -0.417054 4 -0.165214 -0.0249708 -0.985942 -2.60593 -0.377842 0.417054
3.10272 0.448215 0.496523 100 -0.90333 0.402947 -0.147065 -3.10272 -0.448215 -0.496523
3.19846 0.462045 -0.282733 72 -0.974159 0.219608 -0.0527898 -3.19846 -0.462045 0.282733
3.08764 0.445486 0.606391 100 -0.930391 -0.0851885 -0.356534 -3.08764 -0.445486 -0.606391
3.18667 0.459206 -0.168731 93 -0.974159 0.219608 -0.0527898 -3.18667 -0.459206 0.168731
3.05386 0.438436 0.826668 92 0.25323 0.0343595 -0.966796 -3.05386 -0.438436 -0.826668
3.14222 0.445525 0.166324 92 0.0510561 0.0077866 -0.998665 -3.14222 -0.445525 -0.166324
3.14844 0.445847 0.278201 100 0.0861814 0.0125109 -0.996201 -3.14844 -0.445847 -0.278201
2.61505 0.36985 -0.418306 5 -0.159176 -0.0224759 -0.986994 -2.61505 -0.36985 0.418306
3.10758 0.438955 0.385351 100 -0.90333 0.402947 -0.147065 -3.10758 -0.438955 -0.385351
3.03297 0.427875 -0.376089 4 0.110348 0.0140968 0.993793 -3.03297 -0.427875 0.376089
3.20399 0.451434 -0.283082 72 -0.993579 -0.106728 0.0375554 -3.20399 -0.451434 0.283082
3.18833 0.446956 -0.0561968 83 0.0169651 0.00245425 0.999853 -3.18833 -0.446956 0.0561968
3.05728 0.428041 0.827186 33 0.25323 0.0343595 -0.966796 -3.05728 -0.428041 -0.827186
3.15195 0.435127 0.278375 90 0.0861814 0.0125109 -0.996201 -3.15195 -0.435127 -0.278375
3.11893 0.429459 0.38657 73 -0.90333 0.402947 -0.147065 -3.11893 -0.429459 -0.38657
3.09011 0.424392 0.49402 36 -0.90333 0.402947 -0.147065 -3.09011 -0.424392 -0.49402
3.18781 0.436677 -0.168626 96 -0.971785 -0.228024 -0.0603201 -3.18781 -0.436677 0.168626
3.06258 0.417889 0.828221 34 0.25323 0.0343595 -0.966796 -3.06258 -0.417889 -0.828221
2.30175 0.309983 -0.451454 6 -0.194531 -0.0275932 -0.980508 -2.30175 -0.309983 0.451454
3.04375 0.407745 -0.377064 5 -0.517923 0.0257584 0.85504 -3.04375 -0.407745 0.377064
3.08759 0.413617 0.493394 32 -0.998296 0.0580666 -0.00577533 -3.08759 -0.413617 -0.493394
3.08824 0.412609 0.605628 28 -0.998296 0.0580666 -0.00577533 -3.08824 -0.412609 -0.605628
3.19526 0.426338 -0.16894 82 -0.971785 -0.228024 -0.0603201 -3.19526 -0.426338 0.16894
3.14835 0.414488 0.0554288 26 0.0172325 0.00235367 -0.999849 -3.14835 -0.414488 -0.0554288
3.13911 0.411044 0.276981 36 0.0860788 0.0111903 -0.996225 -3.13911 -0.411044 -0.276981
2.60697 0.341364 -0.416429 3 0.152935 0.0178116 0.988076 -2.60697 -0.341364 0.416429
3.09685 0.403858 0.494646 36 -0.986008 0.00656443 -0.166568 -3.09685 -0.403858 -0.494646
3.07597 0.400591 0.602956 27 -0.190616 -0.0239098 0.981373 -3.07597 -0.400591 -0.602956
3.03662 0.393311 0.820456 26 -0.258386 -0.0341535 0.965438 -3.03662 -0.393311 -0.820456
3.14581 0.402988 0.055359 27 0.0172325 0.00235367 -0.999849 -3.14581 -0.402988 -0.055359
2.3077 0.294804 -0.452217 6 0.182568 0.0267906 0.982828 -2.3077 -0.294804 0.452217
3.13255 0.399623 0.276284 34 0.0860788 0.0111903 -0.996225 -3.13255 -0.399623 -0.276284
2.59835 0.331014 -0.414864 4 0.151335 0.0166371 0.988343 -2.59835 -0.331014 0.414864
3.02873 0.384767 -0.37487 4 -0.122328 -0.0138707 -0.992393 -3.02873 -0.384767 0.37487
3.18027 0.403454 -0.280467 31 0.0799463 0.00927499 0.996756 -3.18027 -0.403454 0.280467
3.06956 0.388863 0.60143 24 -0.190616 -0.0239098 0.981373 -3.06956 -0.388863 -0.60143
3.16242 0.400068 -0.167056 17 -0.892166 0.451669 0.00591725 -3.16242 -0.400068 0.167056
3.17832 0.400951 -0.0559175 17 -0.965182 0.179006 -0.190738 -3.17832 -0.400951 0.0559175
3.04756 0.383915 0.823045 28 -0.258386 -0.0341535 0.965438 -3.04756 -0.383915 -0.823045
3.15117 0.392498 0.0554288 25 0.0172325 0.00235367 -0.999849 -3.15117 -0.392498 -0.0554288
2.30872 0.286749 -0.452217 6 0.188957 0.0218589 0.981742 -2.30872 -0.286749 0.452217
2.61321 0.32364 -0.417054 3 0.152935 0.0178116 0.988076 -2.61321 -0.32364 0.417054
3.095 0.382762 0.382914 30 -0.977645 0.137705 -0.158897 -3.095 -0.382762 -0.382914
3.03005 0.374192 -0.37487 4 -0.122328 -0.0138707 -0.992393 -3.03005 -0.374192 0.37487
3.08259 0.379588 0.60372 27 -0.190616 -0.0239098 0.981373 -3.08259 -0.379588 -0.60372
3.16182 0.388783 -0.166952 17 -0.892166 0.451669 0.00591725 -3.16182 -0.388783 0.166952
3.05026 0.374525 0.709496 27 -0.930391 -0.0851885 -0.356534 -3.05026 -0.374525 -0.709496
3.16978 0.38864 -0.055743 16 -0.979366 0.105486 -0.172384 -3.16978 -0.38864 0.055743
3.12933 0.377027 0.275761 31 -0.0868936 -0.00966744 0.996171 -3.12933 -0.377027 -0.275761
3.01952 0.362193 -0.373408 2 -0.122342 -0.0127335 -0.992406 -3.01952 -0.362193 0.373408
3.08718 0.369764 0.492456 27 -0.156244 -0.0176118 0.987561 -3.08718 -0.369764 -0.492456
3.05929 0.364799 0.711295 30 -0.930391 -0.0851885 -0.356534 -3.05929 -0.364799 -0.711295
3.15324 0.375444 -0.0554288 22 -0.995483 -0.0889524 0.0331808 -3.15324 -0.375444 0.0554288
3.04249 0.361717 0.820974 27 -0.258386 -0.0341535 0.965438 -3.04249 -0.361717 -0.820974
3.02668 0.352341 -0.374139 4 -0.122328 -0.0138707 -0.992393 -3.02668 -0.352341 0.374139
3.07864 0.357844 0.490891 27 -0.156244 -0.0176118 0.987561 -3.07864 -0.357844 -0.490891
3.1824 0.369342 -0.280293 28 0.0799463 0.00927499 0.996756 -3.1824 -0.369342 0.280293
3.13927 0.35712 0.0551496 25 -0.0182817 -0.00167464 0.999831 -3.13927 -0.35712 -0.0551496
2.30774 0.26171 -0.451454 6 0.188957 0.0218589 0.981742 -2.30774 -0.26171 0.451454
3.11413 0.352609 0.274192 34 -0.977645 0.137705 -0.158897 -3.11413 -0.352609 -0.274192
2.61062 0.295136 -0.416116 3 0.151335 0.0166371 0.988343 -2.61062 -0.295136 0.416116
3.09496 0.349344 0.382426 30 -0.980563 -0.0577665 -0.18751 -3.09496 -0.349344 -0.382426
3.03584 0.342133 -0.375114 4 0.110348 0.0140968 0.993793 -3.03584 -0.342133 0.375114
3.18175 0.357454 -0.280119 28 0.0799463 0.00927499 0.996756 -3.18175 -0.357454 0.280119
3.07084 0.344994 0.600667 27 0.181391 0.019303 -0.983222 -3.07084 -0.344994 -0.600667
3.06375 0.343114 0.711745 28 0.222413 0.0231202 -0.974679 -3.06375 -0.343114 -0.711745
3.1638 0.35376 -0.0555685 25 -0.999299 0.00755956 -0.0366676 -3.1638 -0.35376 0.0555685
3.02964 0.338222 0.816833 28 0.257144 0.0278541 -0.965972 -3.02964 -0.338222 -0.816833
3.1405 0.346161 0.0551496 26 -0.0176532 -0.00188242 0.999842 -3.1405 -0.346161 -0.0551496
2.31649 0.254107 -0.452981 7 0.188957 0.0218589 0.981742 -2.31649 -0.254107 0.452981
3.12332 0.342059 0.274889 33 -0.0868936 -0.00966744 0.996171 -3.12332 -0.342059 -0.274889
2.61561 0.285995 -0.416741 3 0.152935 0.0178116 0.988076 -2.61561 -0.285995 0.416741
3.08112 0.335805 0.490891 27 -0.156244 -0.0176118 0.987561 -3.08112 -0.335805 -0.490891
3.16706 0.343493 -0.166952 26 -0.999299 0.00755956 -0.0366676 -3.16706 -0.343493 0.166952
3.04562 0.329784 0.707246 27 -0.224161 -0.0214786 0.974315 -3.04562 -0.329784 -0.707246
3.16104 0.342282 -0.0554987 26 -0.999299 0.00755956 -0.0366676 -3.16104 -0.342282 0.0554987
3.04041 0.328683 0.819421 30 0.257144 0.0278541 -0.965972 -3.04041 -0.328683 -0.819421
2.30947 0.245996 -0.451454 7 0.188957 0.0218589 0.981742 -2.30947 -0.245996 0.451454
3.12835 0.332667 0.275238 33 -0.0868936 -0.00966744 0.996171 -3.12835 -0.332667 -0.275238
3.19198 0.337181 -0.280816 27 -0.0890058 -0.00966306 -0.995984 -3.19198 -0.337181 0.280816
3.07312 0.324083 0.600667 27 0.181391 0.019303 -0.983222 -3.07312 -0.324083 -0.600667
3.05245 0.320826 0.708596 30 0.222413 0.0231202 -0.974679 -3.05245 -0.320826 -0.708596
3.04148 0.3186 0.819421 28 0.257144 0.0278541 -0.965972 -3.04148 -0.3186 -0.819421
3.14278 0.324774 0.0551496 26 -0.0176532 -0.00188242 0.999842 -3.14278 -0.324774 -0.0551496
2.61549 0.26844 -0.416429 3 0.152935 0.0178116 0.988076 -2.61549 -0.26844 0.416429
3.08259 0.315837 0.380476 30 -0.980149 0.0752922 -0.183412 -3.08259 -0.315837 -0.380476
3.18719 0.32543 -0.280293 28 -0.0890058 -0.00966306 -0.995984 -3.18719 -0.32543 0.280293
3.07423 0.313353 0.600667 27 0.181391 0.019303 -0.983222 -3.07423 -0.313353 -0.600667
3.15136 0.319547 -0.0552892 27 0.0170836 0.00162355 0.999853 -3.15136 -0.319547 0.0552892
2.31113 0.229866 -0.451454 6 0.185605 0.015151 0.982508 -2.31113 -0.229866 0.451454
3.11473 0.309245 0.273843 33 -0.999949 -0.0101096 -0.000570688 -3.11473 -0.309245 -0.273843
3.0975 0.306442 0.382182 32 -0.980563 -0.0577665 -0.18751 -3.0975 -0.306442 -0.382182
3.06672 0.302316 0.488076 27 -0.980149 0.0752922 -0.183412 -3.06672 -0.302316 -0.488076
3.17839 0.313325 -0.279421 27 0.0864141 0.00785756 0.996228 -3.17839 -0.313325 0.279421
3.06945 0.302044 0.599522 25 0.181391 0.019303 -0.983222 -3.06945 -0.302044 -0.599522
3.17832 0.312198 -0.16737 26 -0.0559242 -0.00459713 -0.998424 -3.17832 -0.312198 0.16737
3.05656 0.299698 0.709046 31 0.222413 0.0231202 -0.974679 -3.05656 -0.299698 -0.709046
3.02633 0.295668 0.814762 27 0.256156 0.0234439 -0.966351 -3.02633 -0.295668 -0.814762
3.12137 0.299454 0.164335 28 -0.0526901 -0.00541451 0.998596 -3.12137 -0.299454 -0.164335
2.31192 0.221798 -0.451454 6 0.185605 0.015151 0.982508 -2.31192 -0.221798 0.451454
3.11182 0.29799 0.273495 34 -0.999949 -0.0101096 -0.000570688 -3.11182 -0.29799 -0.273495
3.08867 0.294686 0.380964 27 -0.980149 0.0752922 -0.183412 -3.08867 -0.294686 -0.380964
3.02154 0.287747 -0.372676 4 -0.122342 -0.0127335 -0.992406 -3.02154 -0.287747 0.372676
3.16955 0.301285 -0.27855 28 0.0864141 0.00785756 0.996228 -3.16955 -0.301285 0.27855
3.06071 0.290401 0.597614 27 -0.198869 -0.0177476 0.979865 -3.06071 -0.290401 -0.597614
3.17343 0.300536 -0.167056 27 -0.0559242 -0.00459713 -0.998424 -3.17343 -0.300536 0.167056
3.04594 0.287926 0.706346 26 -0.224161 -0.0214786 0.974315 -3.04594 -0.287926 -0.706346
3.15749 0.297916 -0.055359 25 0.0170836 0.00162355 0.999853 -3.15749 -0.297916 0.055359
3.02734 0.285101 0.814762 30 0.256156 0.0234439 -0.966351 -3.02734 -0.285101 -0.814762
3.11681 0.287494 0.273843 34 -0.980563 -0.0577665 -0.18751 -3.11681 -0.287494 -0.273843
3.07585 0.282631 0.379257 30 -0.124045 -0.0119052 0.992205 -3.07585 -0.282631 -0.379257
3.07658 0.282158 0.489327 30 -0.156012 -0.0150594 0.98764 -3.07658 -0.282158 -0.489327
3.17852 0.290946 -0.279247 28 0.0864141 0.00785756 0.996228 -3.17852 -0.290946 0.279247
3.06171 0.279715 0.597614 27 -0.198869 -0.0177476 0.979865 -3.06171 -0.279715 -0.597614
3.15854 0.288008 -0.166219 27 -0.995483 -0.0889524 0.0331808 -3.15854 -0.288008 0.166219
3.12704 0.279632 0.0548006 25 -0.962771 0.208729 -0.171767 -3.12704 -0.279632 -0.0548006
3.1178 0.276611 0.273843 33 -0.980563 -0.0577665 -0.18751 -3.1178 -0.276611 -0.273843
3.07479 0.272253 0.379014 30 -0.124045 -0.0119052 0.992205 -3.07479 -0.272253 -0.379014
3.02738 0.267524 -0.373164 4 -0.122342 -0.0127335 -0.992406 -3.02738 -0.267524 0.373164
3.06262 0.269559 0.597614 27 -0.198869 -0.0177476 0.979865 -3.06262 -0.269559 -0.597614
3.03036 0.265656 0.702297 27 -0.224161 -0.0214786 0.974315 -3.03036 -0.265656 -0.702297
3.15148 0.275718 -0.0552194 27 0.0170836 0.00162355 0.999853 -3.15148 -0.275718 0.0552194
3.02921 0.26449 0.814762 27 0.256156 0.0234439 -0.966351 -3.02921 -0.26449 -0.814762
2.31408 0.19798 -0.451454 6 0.185605 0.015151 0.982508 -2.31408 -0.19798 0.451454
3.11274 0.265761 0.27332 37 -0.997001 0.0752162 0.0182323 -3.11274 -0.265761 -0.27332
3.08363 0.262193 0.379989 28 -0.124045 -0.0119052 0.992205 -3.08363 -0.262193 -0.379989
3.03225 0.25729 -0.373651 4 0.110348 0.0140968 0.993793 -3.03225 -0.25729 0.373651
3.06273 0.259338 0.486824 28 -0.980149 0.0752922 -0.183412 -3.06273 -0.259338 -0.486824
3.1705 0.268463 -0.278375 27 0.0864141 0.00785756 0.996228 -3.1705 -0.268463 0.278375
3.06549 0.259035 0.597995 25 0.181391 0.019303 -0.983222 -3.06549 -0.259035 -0.597995
3.15844 0.266332 -0.166114 26 -0.995483 -0.0889524 0.0331808 -3.15844 -0.266332 0.166114
3.04098 0.255893 0.704547 28 -0.224161 -0.0214786 0.974315 -3.04098 -0.255893 -0.704547
3.02241 0.253268 0.812692 27 0.256156 0.0234439 -0.966351 -3.02241 -0.253268 -0.812692
3.12892 0.257796 0.0548006 26 -0.962771 0.208729 -0.171767 -3.12892 -0.257796 -0.0548006
3.10927 0.255083 0.163498 27 -0.997001 0.0752162 0.0182323 -3.10927 -0.255083 -0.163498
2.30693 0.189259 -0.449928 6 0.182392 0.0158064 0.983099 -2.30693 -0.189259 0.449928
2.61853 0.213902 -0.416116 4 -0.157654 -0.0118921 -0.987423 -2.61853 -0.213902 0.416116
3.08849 0.25175 0.380476 30 -0.124045 -0.0119052 0.992205 -3.08849 -0.25175 -0.380476
3.16546 0.256912 -0.277853 28 0.0864141 0.00785756 0.996228 -3.16546 -0.256912 0.277853
3.06051 0.247856 0.596851 27 -0.198869 -0.0177476 0.979865 -3.06051 -0.247856 -0.596851
3.17329 0.256431 -0.166847 30 -0.0559242 -0.00459713 -0.998424 -3.17329 -0.256431 0.166847
3.14137 0.252749 -0.05501 26 0.0170836 0.00162355 0.999853 -3.14137 -0.252749 0.05501
3.10987 0.245299 0.0544515 25 -0.962771 0.208729 -0.171767 -3.10987 -0.245299 -0.0544515
2.10398 0.165587 -0.487244 8 0.222391 0.0144866 0.97485 -2.10398 -0.165587 0.487244
3.10062 0.242936 0.2721 33 -0.0882441 -0.00671981 0.996076 -3.10062 -0.242936 -0.2721
3.07351 0.239733 0.378526 28 -0.979479 -0.0499959 -0.195248 -3.07351 -0.239733 -0.378526
3.04585 0.23704 -0.375114 4 -0.132875 -0.0069669 -0.991108 -3.04585 -0.23704 0.375114
3.06052 0.237644 0.486198 28 0.15381 0.0107788 -0.988042 -3.06052 -0.237644 -0.486198
3.05157 0.236414 0.594942 28 -0.193092 -0.0118605 0.981109 -3.05157 -0.236414 -0.594942
3.1662 0.244739 -0.166428 28 -0.0523524 -0.00372404 -0.998622 -3.1662 -0.244739 0.166428
3.05241 0.235406 0.706796 32 0.222909 0.0157467 -0.974712 -3.05241 -0.235406 -0.706796
3.11297 0.233519 0.163602 27 -0.0522313 -0.00379668 0.998628 -3.11297 -0.233519 -0.163602
2.31997 0.173625 -0.452217 5 0.189573 0.0118276 0.981795 -2.31997 -0.173625 0.452217
3.10149 0.231571 0.2721 36 -0.0882441 -0.00671981 0.996076 -3.10149 -0.231571 -0.2721
2.60423 0.193985 -0.413613 5 0.089185 0.00353941 0.996009 -2.60423 -0.193985 0.413613
3.06527 0.227252 0.486824 26 0.15381 0.0107788 -0.988042 -3.06527 -0.227252 -0.486824
3.1692 0.234401 -0.278027 31 0.0866333 0.00630707 0.99622 -3.1692 -0.234401 0.278027
3.15114 0.231959 -0.165591 27 -0.0523524 -0.00372404 -0.998622 -3.15114 -0.231959 0.165591
3.04548 0.223646 0.704997 30 0.222909 0.0157467 -0.974712 -3.04548 -0.223646 -0.704997
3.14705 0.231105 -0.0550798 26 -0.9962 0.0586182 0.0644126 -3.14705 -0.231105 0.0550798
3.01719 0.22104 0.810621 28 -0.99879 -0.0395166 -0.0292806 -3.01719 -0.22104 -0.810621
3.12351 0.223897 0.0546609 26 -0.969533 0.0401968 -0.241639 -3.12351 -0.223897 -0.0546609
3.09384 0.221226 0.162556 27 -0.0522313 -0.00379668 0.998628 -3.09384 -0.221226 -0.162556
2.30881 0.164688 -0.449928 5 0.182392 0.0158064 0.983099 -2.30881 -0.164688 0.449928
3.10625 0.221025 0.272449 34 -0.0882441 -0.00671981 0.996076 -3.10625 -0.221025 -0.272449
2.60884 0.185173 -0.414239 3 -0.157654 -0.0118921 -0.987423 -2.60884 -0.185173 0.414239
3.03555 0.214929 -0.373651 4 0.117984 0.0062021 0.992996 -3.03555 -0.214929 0.373651
3.17 0.223336 -0.278027 28 0.0866333 0.00630707 0.99622 -3.17 -0.223336 0.278027
3.05122 0.214434 0.594561 27 -0.193092 -0.0118605 0.981109 -3.05122 -0.214434 -0.594561
3.02676 0.212184 0.700498 30 -0.999867 0.00221654 -0.0161638 -3.02676 -0.212184 -0.700498
3.02566 0.211045 0.812692 28 -0.999867 0.00221654 -0.0161638 -3.02566 -0.211045 -0.812692
3.12423 0.213537 0.0546609 27 -0.969533 0.0401968 -0.241639 -3.12423 -0.213537 -0.0546609
2.10171 0.14328 -0.486344 8 0.222391 0.0144866 0.97485 -2.10171 -0.14328 0.486344
3.10054 0.211374 0.16287 28 -0.0522313 -0.00379668 0.998628 -3.10054 -0.211374 -0.16287
3.0578 0.204707 0.595706 28 -0.999321 0.0334717 0.0154079 -3.0578 -0.204707 -0.595706
3.02161 0.201755 0.699148 28 -0.99879 -0.0395166 -0.0292806 -3.02161 -0.201755 -0.699148
3.01863 0.200497 0.810621 30 -0.99879 -0.0395166 -0.0292806 -3.01863 -0.200497 -0.810621
3.09328 0.200034 0.162451 28 -0.969533 0.0401968 -0.241639 -3.09328 -0.200034 -0.162451
2.30985 0.149372 -0.449928 6 0.185605 0.015151 0.982508 -2.30985 -0.149372 0.449928
2.61789 0.168374 -0.41549 4 -0.157654 -0.0118921 -0.987423 -2.61789 -0.168374 0.41549
3.06662 0.196698 0.377308 30 -0.972839 0.0539604 -0.225107 -3.06662 -0.196698 -0.377308
3.05477 0.195402 -0.375845 4 -0.686846 0.0367081 0.725875 -3.05477 -0.195402 0.375845
3.0438 0.194166 0.48307 27 -0.99765 0.00852197 -0.0679815 -3.0438 -0.194166 -0.48307
3.15352 0.201165 -0.276458 28 -0.686846 0.0367081 0.725875 -3.15352 -0.201165 0.276458
3.05846 0.194566 0.595706 29 -0.999321 0.0334717 0.0154079 -3.05846 -0.194566 -0.595706
3.15332 0.200049 -0.165591 30 -0.999749 0.0217479 0.00546871 -3.15332 -0.200049 0.165591
3.1293 0.197428 -0.0547307 30 0.0172051 0.00102048 0.999852 -3.1293 -0.197428 0.0547307
3.0116 0.189475 0.808551 30 -0.262901 -0.0175273 0.964664 -3.0116 -0.189475 -0.808551
3.10566 0.19104 0.0543119 25 -0.983056 0.00251267 -0.183287 -3.10566 -0.19104 -0.0543119
2.10653 0.12921 -0.487244 8 0.222391 0.0144866 0.97485 -2.10653 -0.12921 0.487244
3.09043 0.188479 0.27088 33 -0.972839 0.0539604 -0.225107 -3.09043 -0.188479 -0.27088
2.60269 0.158275 -0.412987 3 0.079707 0.00325688 0.996813 -2.60269 -0.158275 0.412987
3.06729 0.185991 0.377308 28 -0.972839 0.0539604 -0.225107 -3.06729 -0.185991 -0.377308
3.06023 0.184491 0.485573 28 0.15381 0.0107788 -0.988042 -3.06023 -0.184491 -0.485573
3.154 0.189041 -0.165591 28 -0.999749 0.0217479 0.00546871 -3.154 -0.189041 0.165591
3.13396 0.186741 -0.0548006 26 0.0172051 0.00102048 0.999852 -3.13396 -0.186741 0.0548006
3.10059 0.178779 0.162765 27 -0.0529293 -0.00269814 0.998595 -3.10059 -0.178779 -0.162765
3.09704 0.178032 0.271403 36 0.0856508 0.00415268 -0.996317 -3.09704 -0.178032 -0.271403
3.05801 0.174718 0.376089 30 -0.981041 0.0965918 -0.168012 -3.05801 -0.174718 -0.376089
3.02831 0.172491 -0.372433 2 -0.0944121 0.00463774 0.995522 -3.02831 -0.172491 0.372433
3.14258 0.176249 -0.0549402 27 -0.9962 0.0586182 0.0644126 -3.14258 -0.176249 0.0549402
3.01478 0.168553 0.809068 28 -0.262901 -0.0175273 0.964664 -3.01478 -0.168553 -0.809068
3.06058 0.164148 0.376333 27 -0.972839 0.0539604 -0.225107 -3.06058 -0.164148 -0.376333
3.1312 0.164647 -0.0547307 27 0.0172051 0.00102048 0.999852 -3.1312 -0.164647 0.0547307
3.10352 0.157761 0.0542421 26 -0.0175861 -0.000802362 0.999845 -3.10352 -0.157761 -0.0542421
2.10389 0.106579 -0.486344 8 0.222391 0.0144866 0.97485 -2.10389 -0.106579 0.486344
2.29997 0.116109 -0.447638 6 0.0877531 -0.00104332 0.996142 -2.29997 -0.116109 0.447638
3.04335 0.151507 -0.374139 4 -0.132875 -0.0069669 -0.991108 -3.04335 -0.151507 0.374139
3.15207 0.156368 -0.276109 30 -0.999749 0.0217479 0.00546871 -3.15207 -0.156368 0.276109
3.13988 0.154665 -0.164754 27 -0.977958 0.206895 -0.028168 -3.13988 -0.154665 0.164754
3.0247 0.148461 0.699148 28 -0.999257 0.0142218 -0.0358222 -3.0247 -0.148461 -0.699148
2.61254 0.122291 -0.414239 4 0.142527 0.00164595 0.98979 -2.61254 -0.122291 0.414239
3.04582 0.141506 -0.374383 2 -0.132875 -0.0069669 -0.991108 -3.04582 -0.141506 0.374383
3.14065 0.144815 -0.275064 30 -0.977958 0.206895 -0.028168 -3.14065 -0.144815 0.275064
3.0457 0.140436 0.592653 29 -0.998193 -0.0600487 0.00204424 -3.0457 -0.140436 -0.592653
3.15235 0.144801 -0.165382 28 -0.999749 0.0217479 0.00546871 -3.15235 -0.144801 0.165382
3.02907 0.138609 0.700048 31 -0.999867 0.00221654 -0.0161638 -3.02907 -0.138609 -0.700048
2.30463 0.100622 -0.448401 6 0.157606 0.0074149 0.987474 -2.30463 -0.100622 0.448401
3.05817 0.131919 0.375845 30 -0.981041 0.0965918 -0.168012 -3.05817 -0.131919 -0.375845
3.04827 0.13096 -0.374626 4 -0.686846 0.0367081 0.725875 -3.04827 -0.13096 0.374626
3.0452 0.130828 0.482757 28 -0.998193 -0.0600487 0.00204424 -3.0452 -0.130828 -0.482757
3.13514 0.134143 -0.274541 27 -0.999707 0.0146341 -0.0192998 -3.13514 -0.134143 0.274541
