x,y,z,intensity
2.97152,-0.422909,0.368533,131
3.02647,-0.431269,-0.375358,11
2.94705,-0.420477,0.471494,114
3.04146,-0.433948,-0.268788,33
2.94055,-0.420073,0.577388,61
3.03886,-0.434658,-0.160881,32
2.92252,-0.418539,0.681602,42
3.02064,-0.433129,-0.0532647,31
2.90852,-0.41757,0.787328,42
1.85646,-0.268843,-0.502627,11
2.99819,-0.434716,0.0528808,41
2.08088,-0.302084,-0.485444,8
2.99438,-0.435232,0.158578,86
2.27506,-0.33068,-0.446875,5
2.97715,-0.433258,0.26321,123
2.58221,-0.376243,-0.4133,4
2.97002,-0.433279,0.368533,133
3.03477,-0.443265,-0.376576,12
2.93579,-0.429332,0.469929,116
3.03007,-0.44312,-0.267917,30
2.94489,-0.431188,0.578533,64
3.04918,-0.447002,-0.161509,31
2.92876,-0.42987,0.683401,41
3.02109,-0.443961,-0.0532997,35
2.89367,-0.425752,0.783704,39
1.85933,-0.275889,-0.503662,11
2.99665,-0.445179,0.0528808,41
2.07596,-0.308772,-0.484545,8
2.98297,-0.444211,0.158055,87
2.2972,-0.342089,-0.451454,6
2.98941,-0.445704,0.264431,127
2.58088,-0.385254,-0.4133,3
2.96456,-0.443057,0.368045,133
3.02927,-0.453269,-0.376089,11
2.94599,-0.441333,0.471806,121
3.03836,-0.45517,-0.268788,30
2.9356,-0.440301,0.577006,64
3.04168,-0.456753,-0.161195,30
2.92917,-0.44038,0.683851,40
3.02545,-0.455396,-0.0534044,31
2.8979,-0.436714,0.785257,56
1.86218,-0.282958,-0.504697,11
2.99113,-0.455035,0.052811,41
2.05945,-0.313669,-0.480945,8
2.98732,-0.455524,0.158369,91
2.29211,-0.349514,-0.450691,6
2.97405,-0.454031,0.26321,127
2.58928,-0.395753,-0.414864,3
2.9473,-0.451001,0.366096,134
3.01394,-0.461736,-0.374383,11
2.95225,-0.452812,0.473058,122
3.03872,-0.466075,-0.268963,31
2.93211,-0.450247,0.576625,65
3.01835,-0.464029,-0.160043,32
2.91413,-0.448527,0.680702,35
3.02977,-0.466868,-0.0535091,36
2.90208,-0.44771,0.78681,55
1.865,-0.29005,-0.505732,10
2.9994,-0.467012,0.0529855,37
2.06027,-0.321156,-0.481395,7
2.96993,-0.463485,0.157531,92
2.27924,-0.355696,-0.448401,6
2.97245,-0.46441,0.26321,126
2.58398,-0.404178,-0.414239,4
2.94179,-0.460672,0.365608,134
3.01035,-0.471946,-0.374139,9
2.94284,-0.461889,0.471806,123
3.04495,-0.477915,-0.26966,33
2.93828,-0.461698,0.578151,68
3.0246,-0.475804,-0.160462,32
2.9164,-0.459303,0.681602,38
3.0143,-0.475261,-0.0532647,31
2.90814,-0.459043,0.78888,55
1.86398,-0.296559,-0.505732,10
2.98985,-0.476221,0.0528459,40
2.05914,-0.328346,-0.481395,7
2.96829,-0.473849,0.157531,83
2.28574,-0.364888,-0.449928,5
2.98458,-0.476984,0.264431,128
2.58255,-0.413196,-0.414239,4
2.95976,-0.474077,0.368045,136
3.00672,-0.482137,-0.373895,9
2.93731,-0.471533,0.471181,121
3.03539,-0.487278,-0.268963,37
2.9444,-0.473198,0.579678,68
3.03475,-0.488262,-0.16109,35
2.91477,-0.46948,0.681602,38
3.01262,-0.48578,-0.0532647,31
2.90079,-0.468268,0.787328,59
1.84767,-0.300582,-0.501591,11
2.98817,-0.486654,0.0528459,38
2.08298,-0.339608,-0.487244,8
2.9745,-0.485495,0.15795,92
2.28057,-0.372232,-0.449164,6
2.95734,-0.483222,0.262164,127
2.5772,-0.42157,-0.413613,4
2.96201,-0.485047,0.368533,136
3.01286,-0.493914,-0.37487,8
2.93954,-0.482423,0.471806,122
3.02384,-0.496257,-0.268091,30
2.94079,-0.483155,0.579296,67
3.02909,-0.498204,-0.160881,31
2.90927,-0.479019,0.680702,38
3.00301,-0.494992,-0.0531251,31
2.89342,-0.477447,0.785775,50
1.86186,-0.309564,-0.505732,12
2.98645,-0.497082,0.0528459,38
2.0741,-0.345596,-0.485444,8
2.97485,-0.495684,0.158055,85
2.29088,-0.382129,-0.451454,5
2.96153,-0.494527,0.262687,129
2.57181,-0.429912,-0.412987,5
2.95247,-0.494073,0.367558,135
3.00729,-0.503247,-0.374383,9
2.93793,-0.492168,0.471806,122
3.02799,-0.507798,-0.268614,30
2.92554,-0.491142,0.576625,65
3.02142,-0.507782,-0.160567,30
2.91728,-0.490279,0.682951,37
3.01713,-0.507602,-0.0534044,31
2.89373,-0.48736,0.786292,52
1.86654,-0.316706,-0.507285,12
2.98085,-0.506313,0.0527761,40
2.05757,-0.349859,-0.481845,8
2.97909,-0.506551,0.158369,91
2.27799,-0.387747,-0.449164,6
2.96969,-0.506018,0.263559,131
2.56648,-0.437774,-0.412361,5
2.94298,-0.502525,0.366583,137
3.00756,-0.513551,-0.374626,9
2.94407,-0.503239,0.473058,122
3.03218,-0.518845,-0.269137,28
2.92389,-0.500841,0.576625,58
3.01579,-0.517123,-0.160357,30
2.91756,-0.500279,0.683401,46
3.01937,-0.518281,-0.0534742,30
2.8921,-0.496953,0.786292,44
1.87119,-0.323883,-0.508838,11
2.98506,-0.517219,0.0528808,43
2.06792,-0.358678,-0.484545,8
2.96157,-0.514213,0.157531,95
2.28443,-0.396642,-0.450691,6
2.968,-0.515863,0.263559,130
2.5728,-0.447637,-0.413613,4
2.94521,-0.512962,0.36707,136
2.98032,-0.519614,-0.371458,8
2.9384,-0.512833,0.472432,122
3.0324,-0.529239,-0.269311,30
2.91835,-0.509858,0.575862,58
3.00815,-0.526089,-0.160043,31
2.89468,-0.506764,0.678452,40
3.01755,-0.528817,-0.0534742,30
2.89796,-0.508381,0.788363,42
1.86244,-0.329068,-0.506768,11
3.00293,-0.531119,0.0532298,25
2.082,-0.368612,-0.488144,8
2.96565,-0.525593,0.157845,28
2.27143,-0.402558,-0.448401,6
2.579,-0.457996,-0.414864,3
2.97654,-0.529666,-0.371214,6
3.02269,-0.538424,-0.268614,30
2.91848,-0.520387,0.576243,31
3.0122,-0.537639,-0.160357,30
2.88905,-0.51618,0.677553,31
3.00584,-0.537587,-0.0532997,26
2.87905,-0.515429,0.783704,30
1.85557,-0.334539,-0.505215,12
2.97351,-0.536626,0.0527412,31
2.0692,-0.373799,-0.485444,8
2.97363,-0.537719,0.158369,67
2.27774,-0.411882,-0.449928,6
2.96824,-0.537281,0.263908,119
2.58516,-0.468405,-0.416116,5
2.93179,-0.53174,0.365852,126
2.98444,-0.541826,-0.372433,8
2.91532,-0.529803,0.469303,87
3.01295,-0.547547,-0.267917,30
2.93403,-0.533733,0.579678,58
3.01816,-0.549581,-0.160776,33
2.90832,-0.530105,0.682501,41
3.00395,-0.548076,-0.0532997,36
2.89244,-0.528253,0.787845,37
1.85819,-0.341713,-0.50625,12
2.96965,-0.54664,0.0527063,32
2.06022,-0.379607,-0.483645,8
2.96977,-0.547734,0.158264,46
2.27242,-0.419118,-0.449164,6
2.95851,-0.546192,0.26321,69
2.56408,-0.473836,-0.412987,4
2.94944,-0.545581,0.368289,123
2.97081,-0.550072,-0.37097,8
2.93093,-0.543216,0.472119,50
3.01494,-0.558787,-0.268265,37
2.89741,-0.537526,0.572809,39
3.02212,-0.561207,-0.16109,36
2.91795,-0.54239,0.685201,42
3.00988,-0.560022,-0.0534393,35
2.87728,-0.53587,0.784222,41
1.85509,-0.347841,-0.505732,11
2.98148,-0.559585,0.0529506,32
2.05122,-0.385357,-0.481845,8
2.97961,-0.560311,0.158892,40
2.28252,-0.429225,-0.451454,6
2.96638,-0.558358,0.264082,43
2.57406,-0.484978,-0.414864,5
2.93581,-0.553666,0.366827,46
2.98253,-0.563016,-0.372676,9
2.93678,-0.55491,0.473371,40
3.0208,-0.570787,-0.268963,42
2.91866,-0.552014,0.577388,46
3.01818,-0.571381,-0.160985,42
2.91221,-0.551847,0.684301,52
3.01183,-0.57127,-0.0535091,40
2.89058,-0.548793,0.788363,52
1.86715,-0.356853,-0.509356,12
2.99129,-0.572243,0.05316,62
2.0422,-0.391049,-0.480046,8
2.98156,-0.571461,0.159101,75
2.27523,-0.436081,-0.450309,7
2.99572,-0.574716,0.266871,100
2.57817,-0.495078,-0.415803,6
2.92996,-0.563161,0.366339,58
2.92207,-0.562172,-0.365364,30
2.93094,-0.564411,0.472745,68
3.0364,-0.584719,-0.270531,79
2.94563,-0.567773,0.583112,74
3.0142,-0.581535,-0.160881,82
2.9007,-0.560162,0.682052,73
3.02749,-0.585195,-0.0538232,100
2.90192,-0.561448,0.791986,78
1.85641,-0.361522,-0.506768,13
2.99124,-0.583064,0.0531949,100
2.06187,-0.40228,-0.484994,9
2.97171,-0.580334,0.158683,100
2.26406,-0.442139,-0.448401,7
2.9761,-0.581729,0.265302,100
2.5648,-0.501799,-0.413926,6
2.93188,-0.574148,0.366827,95
2.92398,-0.573133,-0.365852,61
2.91733,-0.572357,0.470868,100
3.02457,-0.593396,-0.26966,79
2.93015,-0.575403,0.580441,100
3.01019,-0.591668,-0.160776,93
2.90064,-0.57066,0.682501,100
2.99796,-0.590351,-0.0533346,95
2.89994,-0.571574,0.791986,100
1.85324,-0.367624,-0.50625,12
2.99311,-0.59428,0.0532647,87
2.05663,-0.408715,-0.484095,9
2.97554,-0.591872,0.158997,100
2.26828,-0.451188,-0.449546,7
2.96037,-0.589391,0.264082,100
2.47198,-0.492604,-0.399221,5
2.94543,-0.587485,0.368777,100
2.90639,-0.580227,-0.363902,90
2.925,-0.584472,0.472432,100
2.93651,-0.586773,-0.26199,67
2.93197,-0.586398,0.581204,102
3.00028,-0.600603,-0.160357,112
2.90245,-0.581547,0.683401,100
3.01157,-0.603958,-0.0536138,119
2.88278,-0.578652,0.787845,100
1.84816,-0.373326,-0.505215,13
2.96946,-0.600365,0.0528808,100
2.05901,-0.416665,-0.484994,9
2.96954,-0.601462,0.158787,100
2.27246,-0.460272,-0.450691,8
2.96806,-0.6017,0.264953,100
2.49541,-0.506336,-0.403288,3
2.93947,-0.596973,0.368289,100
2.54836,-0.518006,-0.319298,82
2.92681,-0.595466,0.473058,100
2.63378,-0.535848,-0.235146,100
2.90682,-0.591928,0.576625,102
2.57349,-0.524517,-0.137644,95
2.90613,-0.592844,0.684751,100
2.99573,-0.611666,-0.0533695,90
2.88452,-0.589485,0.78888,115
1.85063,-0.380553,-0.50625,12
2.92033,-0.601052,0.0520431,109
2.0499,-0.422277,-0.483195,9
2.94004,-0.606178,0.157322,95
2.26699,-0.467409,-0.449928,8
2.94252,-0.607225,0.262862,100
2.47622,-0.511448,-0.400472,15
2.93153,-0.606024,0.367558,100
2.9081,-0.601709,-0.364633,100
2.93632,-0.608082,0.474935,100
2.90698,-0.602007,-0.259724,67
2.90474,-0.602071,0.576625,100
2.89041,-0.599627,-0.154705,74
2.90404,-0.602984,0.684751,100
2.61962,-0.544405,-0.0467026,120
2.88623,-0.600337,0.789916,100
1.85307,-0.387802,-0.507285,12
2.61485,-0.5477,0.0466328,122
2.04079,-0.42783,-0.481395,9
2.59583,-0.544663,0.139004,120
2.27688,-0.477738,-0.452217,12
2.90334,-0.609713,0.25955,71
2.92746,-0.615845,0.367314,100
2.91375,-0.613493,-0.365608,50
2.93031,-0.617514,0.474309,100
2.93021,-0.617491,-0.26199,57
2.90262,-0.612207,0.576625,99
2.90198,-0.6126,-0.155438,38
2.88095,-0.608686,0.679802,100
2.87791,-0.60857,-0.051345,47
2.88601,-0.610808,0.790433,100
1.84226,-0.392256,-0.504697,11
2.02785,-0.432512,-0.478696,18
2.63426,-0.562813,0.235669,43
2.92529,-0.62606,0.367314,17
2.90383,-0.621997,-0.364633,10
2.92158,-0.626866,0.580823,16
2.54833,-0.547244,-0.136597,6
2.62553,-0.564783,-0.0468772,7
2.8763,-0.619252,0.788363,27
1.83521,-0.397458,-0.503144,20
2.55038,-0.552809,0.0455508,10
2.06822,-0.448677,-0.488594,70
2.53732,-0.550906,0.136073,10
2.26006,-0.490706,-0.449546,20
2.83476,-0.616005,0.253798,12
2.46879,-0.53693,-0.400159,3
2.82222,-0.614313,0.35464,20
2.50402,-0.545507,-0.314667,6
2.75609,-0.600924,0.446777,10
2.39828,-0.522909,-0.214752,7
2.79661,-0.610272,0.556399,13
2.37079,-0.517782,-0.127176,6
2.62342,-0.573438,0.619965,7
2.44382,-0.534627,-0.0436659,6
2.5835,-0.565657,0.708647,7
1.85079,-0.407601,-0.507803,38
2.6324,-0.580217,0.0470517,10
2.04952,-0.452116,-0.484545,76
2.52173,-0.556745,0.135341,10
2.25641,-0.498169,-0.449164,8
2.65945,-0.587638,0.238284,10
2.35504,-0.520805,-0.382013,2
2.74835,-0.608288,0.345621,9
2.20363,-0.48813,-0.277131,3
2.5939,-0.575054,0.420809,10
2.23305,-0.495054,-0.20011,6
2.72547,-0.60472,0.542661,10
2.21493,-0.49185,-0.118907,5
2.49014,-0.55342,0.588922,10
2.26431,-0.503644,-0.0404896,4
2.43254,-0.54151,0.667753,6
1.84559,-0.413215,-0.506768,76
2.1679,-0.485776,0.0387792,3
2.04603,-0.458841,-0.484095,20
2.13586,-0.479379,0.11472,3
2.20868,-0.495724,-0.440006,6
2.15973,-0.485132,0.19366,3
2.11229,-0.474864,-0.342904,2
2.1594,-0.485849,0.271769,3
2.06248,-0.464422,-0.259582,4
2.12361,-0.478576,0.344782,4
2.09136,-0.471309,-0.187559,6
2.13156,-0.480758,0.424741,3
2.04955,-0.462638,-0.110115,5
2.08712,-0.471501,0.493993,4
2.1026,-0.475384,-0.0376274,3
2.08394,-0.471548,0.572508,4
1.84979,-0.420941,-0.508321,43
2.02581,-0.461368,0.0362661,3
2.02731,-0.462083,-0.480046,8
1.99592,-0.455294,0.107289,4
2.18397,-0.498191,-0.435426,3
2.03371,-0.464287,0.182504,3
1.91805,-0.438235,-0.311617,4
2.02223,-0.462409,0.254707,3
1.92152,-0.439735,-0.242033,5
2.00062,-0.458202,0.325071,3
1.94987,-0.44658,-0.175009,5
2.0074,-0.460124,0.400317,3
1.92528,-0.441656,-0.103521,6
1.9677,-0.451749,0.466099,6
1.9723,-0.453166,-0.0353237,3
1.95803,-0.450246,0.538344,4
1.8389,-0.425219,-0.505732,12
1.89171,-0.437779,0.0338926,3
2.00101,-0.46344,-0.474197,4
1.87174,-0.433846,0.100694,3
1.81119,-0.41981,-0.361392,3
1.90786,-0.442569,0.171348,4
1.83954,-0.427059,-0.299103,4
1.88718,-0.438467,0.237889,4
1.81557,-0.422162,-0.228871,5
1.86433,-0.433842,0.30317,4
1.84732,-0.430224,-0.165945,6
1.89488,-0.4413,0.378183,3
1.81869,-0.423892,-0.0978682,6
1.82947,-0.426742,0.433706,5
1.83439,-0.428227,-0.0328803,3
1.8511,-0.432467,0.509356,4
1.77715,-0.417808,-0.489168,7
1.78116,-0.418751,0.0319379,4
1.91212,-0.449892,-0.453501,2
1.7594,-0.414284,0.0947281,4
1.70071,-0.400778,-0.33964,3
1.78212,-0.420289,0.160192,4
1.72261,-0.406572,-0.280331,4
1.79097,-0.422708,0.225946,4
1.71362,-0.404767,-0.216196,5
1.76476,-0.417171,0.287214,6
1.7256,-0.408232,-0.155137,7
1.76525,-0.417937,0.352615,4
1.69857,-0.402465,-0.0914833,7
1.73878,-0.412312,0.41256,6
1.73171,-0.410635,-0.0310653,5
1.73304,-0.41127,0.477262,5
1.72307,-0.411446,-0.474674,4
1.66681,-0.398319,0.0299134,4
1.66786,-0.398878,-0.395914,3
1.66665,-0.398589,0.0898085,6
1.61147,-0.385691,-0.322086,3
1.65663,-0.396805,0.149036,4
1.61745,-0.387717,-0.263436,5
1.65429,-0.396854,0.208884,4
1.59631,-0.383241,-0.201572,6
1.63652,-0.392893,0.266564,7
1.63117,-0.391911,-0.14677,8
1.65115,-0.397017,0.3301,5
1.58648,-0.381758,-0.085517,7
1.63502,-0.393741,0.388266,6
1.62528,-0.391396,-0.0291804,5
1.63769,-0.394685,0.45138,6
1.5902,-0.385591,-0.438439,3
1.55665,-0.377455,0.0279588,6
1.53396,-0.372238,-0.364421,7
1.53715,-0.373296,0.0829002,6
1.51664,-0.368595,-0.303386,5
1.56812,-0.381397,0.141192,6
1.5221,-0.370204,-0.248105,7
1.54881,-0.376986,0.195722,7
1.5121,-0.36833,-0.191091,8
1.53918,-0.375211,0.250921,7
1.50979,-0.368325,-0.135963,11
1.55256,-0.378759,0.310637,6
1.49207,-0.364279,-0.0804927,8
1.55041,-0.37881,0.36847,10
1.53261,-0.374744,-0.0275399,7
1.55373,-0.380196,0.428604,8
1.46135,-0.359482,-0.40324,6
1.46212,-0.359942,0.0262833,6
1.46832,-0.361741,-0.349124,7
1.4467,-0.356414,0.0780853,7
1.43916,-0.354824,-0.288122,5
1.4856,-0.366549,0.133871,6
1.43642,-0.354679,-0.234339,7
1.45884,-0.360485,0.18451,7
1.42601,-0.352638,-0.180367,8
1.45547,-0.359923,0.237468,6
1.44667,-0.358014,-0.130385,10
1.46737,-0.36341,0.293846,6
1.421,-0.352188,-0.0767245,10
1.42803,-0.354195,0.339676,8
1.43431,-0.355754,-0.0257947,8
1.44747,-0.359284,0.399617,6
1.37761,-0.343988,-0.380464,6
1.40271,-0.350255,0.0252362,6
1.38014,-0.344876,-0.328429,5
1.3815,-0.345472,0.0746311,7
1.35792,-0.339828,-0.272094,6
1.39928,-0.350435,0.126202,7
1.37391,-0.344084,-0.224327,7
1.39987,-0.350843,0.177198,8
1.35167,-0.339014,-0.171105,9
1.36607,-0.34288,0.223076,7
1.35265,-0.339763,-0.122018,11
1.39571,-0.350578,0.279726,5
1.3404,-0.336935,-0.072433,9
1.35881,-0.341814,0.32348,8
1.36713,-0.344161,-0.0246079,8
1.37876,-0.347345,0.380982,6
1.29406,-0.327689,-0.357688,8
1.32394,-0.335501,0.02384,6
1.32226,-0.335321,-0.314931,6
1.31834,-0.334571,0.0712816,7
1.28828,-0.326943,-0.258355,6
1.33245,-0.338399,0.120275,7
1.29995,-0.330388,-0.212438,8
1.32553,-0.337134,0.167936,8
1.28699,-0.327572,-0.163061,7
1.29595,-0.330093,0.211812,6
1.28587,-0.327526,-0.116091,12
1.32219,-0.337021,0.265225,5
1.2831,-0.327296,-0.0693975,9
1.28208,-0.327275,0.305484,9
1.30392,-0.333093,-0.0234909,8
1.2877,-0.329189,0.356135,5
1.23304,-0.31682,-0.341124,8
1.25692,-0.323189,0.0226532,6
1.23238,-0.31711,-0.293786,7
1.26301,-0.325226,0.0683508,7
1.24151,-0.319689,-0.249197,5
1.26566,-0.326144,0.114348,7
1.24523,-0.321112,-0.203678,8
1.25899,-0.324894,0.159649,7
1.23971,-0.32015,-0.157211,7
1.24507,-0.321764,0.203678,6
1.24229,-0.321046,-0.112257,10
1.25638,-0.324921,0.25225,5
1.22974,-0.318262,-0.0665713,6
1.23943,-0.321,0.295586,9
1.24274,-0.32209,-0.0224089,7
1.22671,-0.318162,0.339571,6
1.18332,-0.308453,-0.327665,6
1.19773,-0.312432,0.0216061,5
1.1879,-0.310089,-0.283438,7
1.20776,-0.315498,0.0654199,7
1.19859,-0.313104,-0.240801,6
1.22018,-0.31897,0.110339,6
1.19633,-0.312958,-0.195856,8
1.20408,-0.31521,0.152824,7
1.17714,-0.308377,-0.149412,6
1.2019,-0.315088,0.196795,6
1.18521,-0.310935,-0.107202,6
1.19637,-0.313861,0.240419,7
1.15908,-0.304295,-0.0628032,5
1.19118,-0.312945,0.284338,8
1.19133,-0.313206,-0.0215014,7
1.18075,-0.310645,0.327147,6
1.14857,-0.303893,-0.318347,5
1.16184,-0.307405,0.0209778,6
1.12088,-0.296776,-0.267692,7
1.14873,-0.304366,0.0622798,7
1.1424,-0.302903,-0.229734,5
1.18626,-0.314754,0.107376,8
1.13408,-0.301119,-0.185844,6
1.14157,-0.30311,0.145025,7
1.12234,-0.298211,-0.142587,4
1.13779,-0.30253,0.18647,6
1.13213,-0.301237,-0.102495,6
1.14398,-0.304604,0.230116,6
1.12322,-0.299284,-0.0609191,5
1.11659,-0.297728,0.266792,4
1.13999,-0.303967,-0.0205938,4
1.13299,-0.302314,0.314206,6
1.09899,-0.294884,-0.304889,6
1.11821,-0.300252,0.0202099,6
1.10849,-0.297849,-0.264992,3
1.10523,-0.296972,0.059977,7
1.08257,-0.291086,-0.217904,4
1.12167,-0.301809,0.101624,5
1.09296,-0.29429,-0.179274,4
1.1002,-0.296446,0.139906,6
1.0829,-0.291987,-0.137712,5
1.08142,-0.291586,0.177397,5
1.1003,-0.296883,-0.0997062,6
1.11069,-0.299896,0.223628,5
1.07203,-0.289658,-0.0581976,3
1.07416,-0.290434,0.256894,5
1.07715,-0.291243,-0.0194769,4
1.07412,-0.290625,0.29816,4
1.04203,-0.283503,-0.28936,4
1.08248,-0.294509,0.0195816,5
1.05485,-0.287189,-0.252395,4
1.06564,-0.290328,0.0578836,7
1.04556,-0.285051,-0.210653,5
1.06679,-0.29104,0.0967429,5
1.0653,-0.290634,-0.174894,4
1.059,-0.289114,0.134787,4
1.04746,-0.28616,-0.133325,5
1.03657,-0.283378,0.170201,6
1.04352,-0.285476,-0.0946511,4
1.05856,-0.28959,0.213324,3
1.06529,-0.29163,-0.0578836,5
1.0356,-0.283697,0.247896,5
1.05299,-0.288657,-0.019058,4
1.03771,-0.284663,0.288324,4
1.00383,-0.27669,-0.279007,4
1.02747,-0.283398,0.0186043,5
1.04257,-0.287758,-0.249696,4
1.04345,-0.288197,0.0567322,6
1.00108,-0.276495,-0.201876,4
1.03317,-0.285553,0.0937796,5
1.00336,-0.277501,-0.164882,4
1.01207,-0.280101,0.128938,4
1.00054,-0.277098,-0.127475,3
1.01463,-0.281192,0.166759,5
1.02716,-0.284857,-0.0932566,4
1.00836,-0.279642,0.203402,3
1.02,-0.283062,-0.0554761,3
1.0177,-0.282617,0.243847,5
1.01922,-0.283229,-0.0184646,3
1.01065,-0.281037,0.281078,4
0.987929,-0.276206,-0.274866,4
0.999513,-0.279445,0.0181156,4
0.985257,-0.275645,-0.236199,4
0.984735,-0.275684,0.053592,6
0.973593,-0.272748,-0.196533,4
0.997585,-0.279657,0.090642,5
0.994724,-0.279042,-0.16363,4
0.970947,-0.272372,0.123819,3
0.993834,-0.27898,-0.126744,3
0.979413,-0.275116,0.161128,5
0.976291,-0.274423,-0.0887245,4
0.961967,-0.270578,0.194244,3
0.978581,-0.275435,-0.053278,3
0.967892,-0.272609,0.232149,5
1.01052,-0.284616,-0.018325,3
0.972473,-0.274082,0.270725,4
0.95722,-0.271227,-0.266584,4
0.983091,-0.278743,0.0178364,3
0.920498,-0.261169,-0.220902,6
0.941495,-0.267126,0.0512892,9
0.932974,-0.264885,-0.188519,6
0.971688,-0.276059,0.0883759,5
0.955743,-0.271709,-0.157373,4
0.939393,-0.267239,0.119919,4
0.945074,-0.269033,-0.120651,4
0.944248,-0.268798,0.155496,6
0.956165,-0.272371,-0.0869814,5
0.940248,-0.268014,0.190046,4
0.914232,-0.260771,-0.0498238,6
0.918213,-0.26208,0.220452,6
0.95376,-0.272226,-0.0173128,5
0.928786,-0.265273,0.258819,3
0.922844,-0.26497,-0.257266,5
0.947565,-0.272068,0.0172081,6
0.945849,-0.271754,-0.227201,4
0.921362,-0.264893,0.0502425,11
0.907516,-0.261083,-0.183558,10
0.943913,-0.271733,0.0859356,5
0.918769,-0.264494,-0.151429,10
0.904166,-0.260461,0.115532,6
0.921287,-0.265568,-0.117726,5
0.905344,-0.261143,0.149238,7
0.905438,-0.261341,-0.0824493,6
0.924264,-0.266775,0.186993,5
0.9172,-0.26491,-0.0500332,3
0.898618,-0.259713,0.215953,7
0.9067,-0.26222,-0.0164751,14
0.898163,-0.259921,0.250537,5
0.91454,-0.265872,-0.255196,14
0.908207,-0.264202,0.01651,8
0.899989,-0.261982,-0.216403,9
0.901256,-0.262522,0.0491958,13
0.897221,-0.261346,-0.18165,12
0.908577,-0.264826,0.082798,8
0.900773,-0.262722,-0.148613,13
0.888007,-0.259167,0.113582,7
0.912733,-0.266556,-0.116751,12
0.877882,-0.256544,0.144858,9
0.866275,-0.253316,-0.0789631,18
0.889409,-0.260081,0.180124,8
0.91627,-0.26811,-0.0500332,9
0.875263,-0.256276,0.210554,6
0.894265,-0.26201,-0.0162656,16
0.867589,-0.254358,0.242255,6
0.878351,-0.258846,-0.24536,32
0.888098,-0.261718,0.0161609,21
0.876639,-0.258508,-0.211004,24
0.898418,-0.265101,0.0490911,15
0.877428,-0.259073,-0.177834,45
0.882761,-0.260815,0.0805319,14
0.873283,-0.258181,-0.144233,59
0.858542,-0.253823,0.109926,14
0.885147,-0.261857,-0.113339,28
0.854252,-0.252879,0.141104,15
0.886399,-0.262563,-0.0808805,36
0.856451,-0.253855,0.173636,11
0.87507,-0.25954,-0.0478351,29
0.870581,-0.258374,0.209654,9
0.885677,-0.262854,-0.016126,27
0.842621,-0.250236,0.235525,11
0.844122,-0.251965,-0.236043,8
0.862224,-0.257532,0.0157072,43
0.871951,-0.260603,-0.210104,12
0.861129,-0.257368,0.0471024,36
0.865233,-0.258759,-0.175544,50
0.866575,-0.259326,0.0791374,33
0.857238,-0.256695,-0.14173,100
0.834787,-0.250131,0.107001,28
0.859462,-0.257688,-0.11017,29
0.84958,-0.254725,0.140478,34
0.856852,-0.257068,-0.0782659,76
0.844278,-0.253456,0.171346,29
0.856943,-0.257421,-0.046893,42
0.854744,-0.256923,0.206055,24
0.869434,-0.261339,-0.0158468,100
0.843592,-0.253732,0.236043,19
0.865428,-0.261618,-0.242255,50
0.851795,-0.257496,0.0155326,100
0.82445,-0.249387,-0.198857,36
0.835374,-0.252851,0.0457416,91
0.832382,-0.252104,-0.169057,44
0.867571,-0.262927,0.0793117,49
0.845039,-0.256098,-0.139852,25
0.828254,-0.251169,0.10627,63
0.860503,-0.261113,-0.110414,24
0.837344,-0.254245,0.138601,85
0.82926,-0.251949,-0.0758255,22
0.830283,-0.252259,0.168675,50
0.838887,-0.255033,-0.045951,15
0.825922,-0.251249,0.199307,49
0.837908,-0.255055,-0.0152883,27
0.839005,-0.255549,0.235008,42
0.836845,-0.256009,-0.23449,100
0.845934,-0.259112,-0.204256,20
0.803976,-0.246261,0.0440669,12
0.812771,-0.249109,-0.165241,25
0.822883,-0.252366,0.0753026,10
0.836586,-0.256728,-0.138601,100
0.817884,-0.251145,0.105051,36
0.840611,-0.258284,-0.107976,100
0.804396,-0.247157,0.133282,35
0.818898,-0.25177,-0.0749539,100
0.825645,-0.254001,0.167912,85
0.851353,-0.262073,-0.0466837,68
0.798966,-0.246099,0.193008,14
0.850435,-0.261953,-0.0155326,100
0.810461,-0.249795,0.227243,41
0.808266,-0.250355,-0.226725,92
0.82137,-0.254414,0.0150091,67
0.822734,-0.254993,-0.198857,32
0.837449,-0.259714,0.045951,66
0.798771,-0.247872,-0.162569,66
0.83722,-0.259964,0.0766971,60
0.792403,-0.246199,0.101883,70
0.817002,-0.253999,-0.105051,54
0.784666,-0.244096,0.130153,45
0.797088,-0.248113,-0.0730365,31
0.781683,-0.243318,0.159135,36
0.818062,-0.254798,-0.0449043,41
0.816751,-0.254546,0.197507,38
0.809426,-0.252418,-0.0147996,42
0.774545,-0.241689,0.217408,28
0.787153,-0.246679,-0.221031,102
0.786131,-0.246509,0.0143808,52
0.821838,-0.257864,-0.198857,66
0.802281,-0.251727,0.0440669,65
0.796071,-0.249931,-0.162188,101
0.809742,-0.254379,0.0742567,50
0.785823,-0.247015,-0.130466,95
0.787751,-0.247772,0.101395,35
0.800963,-0.252082,-0.103101,86
0.783853,-0.246697,0.130153,44
0.784859,-0.247164,-0.0719906,57
0.784574,-0.247225,0.159898,100
0.800024,-0.252247,-0.0439622,64
0.797273,-0.251532,0.193008,100
0.795235,-0.250889,-0.0145553,73
0.786635,-0.248327,0.221031,94
0.801019,-0.254098,-0.225173,81
0.79869,-0.253513,-0.193458,83
0.776652,-0.246667,0.0427061,94
0.797065,-0.253303,-0.162569,109
0.797457,-0.253581,0.0732108,118
0.783117,-0.249021,-0.130153,115
0.756659,-0.240753,0.0974955,67
0.790665,-0.251725,-0.101883,95
0.783991,-0.249902,-0.0719906,74
0.770656,-0.245651,0.157227,82
0.783961,-0.250043,-0.0431248,83
0.770443,-0.24588,0.186709,76
0.796259,-0.254272,-0.0145902,110
0.765521,-0.244603,0.215337,50
0.807485,-0.259255,-0.227243,100
0.782487,-0.25138,0.0143459,117
0.801466,-0.257631,-0.194358,55
0.773841,-0.2489,0.0426015,136
0.792438,-0.254882,-0.161806,75
0.796567,-0.256363,0.0732108,136
0.795361,-0.256128,-0.132344,84
0.738766,-0.238046,0.0953018,96
0.784069,-0.252794,-0.101152,70
0.746348,-0.240776,0.124209,117
0.790699,-0.255084,-0.0726879,92
0.775356,-0.250284,0.158371,120
0.775437,-0.250459,-0.0427061,83
0.752848,-0.243308,0.18266,102
0.797225,-0.257804,-0.0146251,100
0.759106,-0.245623,0.213785,100
0.806575,-0.262072,-0.227243,43
0.794917,-0.258438,0.0145902,95
0.806121,-0.262236,-0.195707,11
0.772967,-0.2516,0.0426015,137
0.78781,-0.256431,-0.161043,100
0.772933,-0.251738,0.0711191,151
0.807609,-0.263188,-0.134534,25
0.753029,-0.245546,0.0972517,119
0.786956,-0.256761,-0.101639,100
0.751136,-0.245219,0.125148,121
0.78791,-0.257224,-0.0725136,48
0.765146,-0.249941,0.156463,122
0.776456,-0.253785,-0.0428108,31
0.742733,-0.242906,0.180411,127
0.79632,-0.260585,-0.0146251,55
0.752736,-0.246468,0.212232,122
0.779962,-0.256438,-0.219996,31
0.788312,-0.259336,0.0144855,39
0.82186,-0.270532,-0.199757,53
0.756908,-0.249298,0.0417641,72
0.775722,-0.255494,-0.158753,70
0.764481,-0.25194,0.0704218,80
0.78605,-0.2592,-0.131092,100
0.774789,-0.255637,0.100177,90
0.774745,-0.255772,-0.100177,52
0.755903,-0.249698,0.126086,82
0.771872,-0.254973,-0.0711191,100
0.753085,-0.248913,0.154174,105
0.785047,-0.259629,-0.0433342,45
0.740031,-0.244885,0.179961,86
0.787812,-0.260849,-0.0144855,100
0.724363,-0.239981,0.204467,93
0.773563,-0.25733,-0.218443,13
0.776017,-0.258297,0.0142761,55
0.793177,-0.264163,-0.193008,42
0.759823,-0.253201,0.0419734,55
0.772963,-0.25758,-0.158371,30
0.757033,-0.252565,-0.126399,43
0.775775,-0.258969,0.10042,100
0.768199,-0.256588,-0.0994454,23
0.766268,-0.256092,0.127963,96
0.769088,-0.257035,-0.0709448,45
0.748488,-0.250295,0.15341,28
0.751937,-0.251595,-0.0415548,22
0.76689,-0.256747,0.186709,94
0.792585,-0.265503,-0.0145902,87
0.750997,-0.251717,0.212232,100
0.763505,-0.256948,-0.215855,13
0.748579,-0.25207,0.0137874,38
0.77009,-0.259463,-0.187609,24
0.738116,-0.248834,0.040822,32
0.751594,-0.253378,-0.154174,22
0.766479,-0.258545,0.0707705,42
0.75989,-0.25647,-0.127025,43
0.752298,-0.254053,0.0974955,56
0.77106,-0.260539,-0.0999329,7
0.741042,-0.250541,0.123896,47
0.745537,-0.25206,-0.068853,34
0.736451,-0.249132,0.151121,50
0.737811,-0.249735,-0.040822,7
0.736457,-0.24942,0.179511,29
0.767033,-0.259925,-0.0141364,40
0.742795,-0.251856,0.210161,50
0.755289,-0.257121,-0.213785,7
0.742016,-0.252747,0.0136827,16
0.772868,-0.263407,-0.188509,23
0.72401,-0.246896,0.0400893,22
0.726549,-0.247762,-0.149213,25
0.74483,-0.254141,0.068853,22
0.744034,-0.254015,-0.124522,23
0.725107,-0.247694,0.0940831,36
0.732577,-0.250389,-0.0950581,8
0.719603,-0.246095,0.120455,29
0.755964,-0.258529,-0.0698989,16
0.731862,-0.25043,0.150357,29
0.740714,-0.253603,-0.0410314,7
0.713459,-0.244411,0.174112,19
0.732071,-0.250929,-0.0135082,23
0.727293,-0.249434,0.20602,26
0.75804,-0.261014,-0.21482,6
0.699535,-0.241006,0.0129148,18
0.838269,-0.288966,-0.204705,15
0.709927,-0.244863,0.0393566,18
0.681137,-0.234933,-0.140054,15
0.749588,-0.258689,0.069376,14
0.758081,-0.261768,-0.127025,21
0.716733,-0.247631,0.0931082,18
0.712937,-0.246459,-0.0926207,9
0.707538,-0.244731,0.118577,22
0.713632,-0.246838,-0.0660641,19
0.716141,-0.247846,0.147305,23
0.713402,-0.247038,-0.039566,8
0.699713,-0.242434,0.170963,13
0.678288,-0.235143,-0.0125308,28
0.704516,-0.244374,0.199808,14
0.720636,-0.250952,-0.204467,8
0.689248,-0.240156,0.0127403,9
0.837255,-0.291891,-0.204705,15
0.684553,-0.238788,0.0379959,13
0.702557,-0.245069,-0.144633,14
0.711059,-0.248174,0.0658897,17
0.757162,-0.264413,-0.127025,21
0.69525,-0.242928,0.0904271,10
0.738307,-0.258117,-0.0960331,8
0.695492,-0.243285,0.1167,8
0.705243,-0.246696,-0.0653668,19
0.7023,-0.245804,0.144633,8
0.716306,-0.250847,-0.0397753,8
0.685988,-0.240364,0.167813,14
0.722753,-0.253388,-0.0133685,24
0.701835,-0.246192,0.199291,7
0.741622,-0.261166,-0.210679,7
0.665773,-0.234586,0.0123214,10
0.67999,-0.239729,0.0377866,6
0.697994,-0.246214,-0.14387,14
0.693279,-0.244686,0.0643209,9
0.707806,-0.249952,-0.11889,27
0.68504,-0.242047,0.0892084,10
0.711199,-0.25143,-0.0926207,9
0.666745,-0.235714,0.112007,8
0.700621,-0.247828,-0.0650182,20
0.673676,-0.238429,0.138909,9
0.700364,-0.248012,-0.038938,8
0.657592,-0.232995,0.161065,7
0.669132,-0.237084,-0.0123912,29
0.671882,-0.23819,0.191008,8
0.718867,-0.255977,-0.204467,8
0.672527,-0.239476,0.012461,10
0.658455,-0.234724,0.0366352,14
0.678639,-0.242053,-0.140054,15
0.656767,-0.234381,0.061009,10
0.755345,-0.269561,-0.127025,21
0.661799,-0.236307,0.0862835,11
0.695407,-0.248444,-0.0906708,10
0.654758,-0.234051,0.11013,9
0.654396,-0.23405,0.135093,9
0.665689,-0.23822,-0.0370539,9
0.656816,-0.235174,0.161065,7
0.683361,-0.244813,-0.0126704,28
0.689232,-0.247052,0.196185,7
0.765275,-0.275365,-0.217926,6
0.63782,-0.229629,0.0118327,11
0.629447,-0.226863,0.0350651,7
0.70369,-0.253622,-0.145396,13
0.655987,-0.236558,0.061009,10
0.754399,-0.272196,-0.127025,21
0.664705,-0.239964,0.086771,10
0.672131,-0.242777,-0.0877459,10
0.627928,-0.226935,0.10575,9
0.766374,-0.27697,-0.0712934,15
0.642498,-0.232327,0.132803,9
0.642316,-0.232388,-0.0357978,10
0.644997,-0.233486,0.158366,7
0.626097,-0.226768,-0.0116233,33
0.630245,-0.228394,0.17962,9
0.680798,-0.247656,-0.194114,9
0.670838,-0.244165,0.012461,10
0.623022,-0.227008,0.0347511,7
0.651413,-0.237481,0.0606604,10
0.697771,-0.25452,-0.117639,27
0.648945,-0.236838,0.0848211,11
0.652633,-0.238313,-0.0853086,11
0.61971,-0.226414,0.104498,10
0.671833,-0.245457,-0.0625778,21
0.656434,-0.239961,0.135856,9
0.66401,-0.242862,-0.0370539,9
0.622217,-0.227699,0.152967,8
0.643955,-0.235909,0.183762,8
0.650919,-0.239363,-0.185832,10
0.658722,-0.242362,0.0122516,10
0.616603,-0.22711,0.0344371,7
0.583998,-0.215101,-0.120973,20
0.605713,-0.223219,0.0564769,11
0.630156,-0.232352,-0.106375,35
0.648114,-0.239102,0.0848211,11
0.689042,-0.254338,-0.0901833,10
0.618916,-0.228576,0.104498,10
0.585614,-0.216393,0.121355,11
0.678145,-0.250719,-0.0378912,9
0.614108,-0.227165,0.151167,8
0.614142,-0.227422,0.175479,9
0.715269,-0.265864,-0.204467,8
0.642878,-0.239084,0.0119724,11
0.610191,-0.227171,0.034123,7
0.583243,-0.217138,-0.120973,20
0.582525,-0.216986,0.0543852,12
0.591476,-0.220556,0.0775089,13
0.673271,-0.25119,-0.0882334,10
0.625517,-0.233498,0.10575,9
0.584855,-0.218436,0.121355,11
0.60243,-0.225119,-0.0337044,11
0.620612,-0.232037,0.152967,8
0.59887,-0.224147,0.171338,9
0.642039,-0.241327,0.0119724,11
0.600048,-0.225782,0.0335997,8
0.611598,-0.23025,0.0571742,11
0.750525,-0.282702,-0.127025,21
0.553551,-0.208618,0.0726341,14
0.624097,-0.235329,-0.0818962,12
0.617305,-0.232891,0.104498,10
0.598783,-0.226022,0.124407,11
0.60164,-0.227221,-0.0337044,11
0.612507,-0.231447,0.151167,8
0.619767,-0.234438,0.17755,9
0.600067,-0.227944,0.0112044,12
0.591789,-0.225036,0.033181,8
0.595893,-0.226716,0.0557797,12
0.631381,-0.240344,-0.107001,35
0.612183,-0.233158,0.0804338,12
0.623272,-0.237506,-0.0818962,12
0.609106,-0.232229,0.103247,10
0.620002,-0.236508,0.128987,10
0.600843,-0.22932,-0.0337044,11
0.600772,-0.229413,0.148468,8
0.582855,-0.222804,0.167197,10
0.622263,-0.23874,-0.178585,11
0.5918,-0.227171,0.0110648,12
0.564899,-0.217071,0.0317156,8
0.580937,-0.223234,-0.120973,20
0.606256,-0.233084,0.0568255,11
0.589134,-0.226737,0.0775089,13
0.648374,-0.249667,-0.0853086,11
0.575112,-0.221571,0.0976151,11
0.59719,-0.230197,0.124407,11
0.600039,-0.231416,-0.0337044,11
0.592695,-0.228702,0.146668,8
0.582073,-0.224837,0.167197,10
0.621426,-0.24091,-0.178585,11
0.617104,-0.239359,0.0115535,11
0.55669,-0.216149,0.0312969,9
0.580155,-0.22526,-0.120973,20
0.583153,-0.226541,0.0547338,12
0.551336,-0.214403,0.0726341,14
0.578016,-0.225011,0.0982409,11
0.570771,-0.222305,0.119065,11
0.599228,-0.233509,-0.0337044,11
0.573737,-0.223691,0.142169,9
0.581285,-0.226867,0.167197,10
0.523174,-0.20503,0.00980825,15
0.55597,-0.217994,0.0312969,9
0.548975,-0.215473,0.0515962,13
0.550584,-0.216326,0.0726341,14
0.646615,-0.254187,-0.0853086,11
0.584621,-0.229817,0.0994923,10
0.569992,-0.224296,0.119065,11
0.598409,-0.235599,-0.0337044,11
0.547569,-0.215693,0.13587,9
0.58053,-0.228794,0.167197,10
0.522491,-0.206763,0.00980825,15
0.52921,-0.209636,0.0298315,9
0.563036,-0.223263,0.0529907,12
0.549864,-0.218151,0.0726341,14
0.553516,-0.219711,-0.0731216,14
0.53241,-0.211441,0.090732,12
0.551,-0.218935,0.115249,12
0.597624,-0.237582,-0.0337044,11
0.550472,-0.218948,0.13677,9
0.579727,-0.230819,0.167197,10
0.588611,-0.235309,0.0110648,12
0.535929,-0.214356,0.0302502,9
0.599286,-0.23994,0.0564769,11
0.512247,-0.205299,0.0677594,15
0.552746,-0.221642,-0.0731216,14
0.590377,-0.236732,0.100744,10
0.568452,-0.228171,0.119065,11
0.596791,-0.239667,-0.0337044,11
0.546088,-0.219415,0.13587,9
0.578959,-0.23274,0.167197,10
0.546289,-0.220715,0.0308782,9
0.561503,-0.22709,0.0529907,12
0.500522,-0.202529,0.0662969,16
0.552008,-0.223474,-0.0731216,14
0.505326,-0.204678,0.0863518,13
0.542219,-0.219731,0.113722,12
0.595993,-0.241644,-0.0337044,11
0.534523,-0.21683,0.133171,10
0.578143,-0.234759,0.167197,10
0.520334,-0.212133,0.00980825,15
0.523362,-0.213473,0.0296222,9
0.542302,-0.22142,0.0512476,13
0.547589,-0.223801,0.0726341,14
0.551224,-0.2254,-0.0731216,14
0.552183,-0.225792,0.0944864,11
0.566886,-0.232035,0.119065,11
0.595146,-0.243723,-0.0337044,11
0.526549,-0.215739,0.131371,10
0.577361,-0.236675,0.167197,10
0.515227,-0.212256,0.0292035,9
0.515738,-0.212677,0.0488072,14
0.546843,-0.225616,0.0726341,14
0.550474,-0.227226,-0.0731216,14
0.460102,-0.190016,0.078843,14
0.522566,-0.21592,0.109906,13
0.594335,-0.245696,-0.0337044,11
0.507823,-0.210036,0.126872,10
0.576532,-0.238689,0.167197,10
0.51884,-0.21576,0.00980825,15
0.499731,-0.207915,0.0283661,10
0.476387,-0.198593,0.0633721,17
0.549637,-0.229242,-0.0731216,14
0.550594,-0.229641,0.0944864,11
0.546607,-0.228427,0.13677,9
0.575695,-0.2407,0.167197,10
0.513732,-0.215848,0.0292035,9
0.517914,-0.217818,0.0491558,14
0.497682,-0.209411,0.0662969,16
0.458764,-0.193224,0.078843,14
0.521046,-0.219563,0.109906,13
0.542255,-0.228723,0.13587,9
0.574851,-0.242708,0.167197,10
0.51736,-0.219287,0.00980825,15
0.487235,-0.206719,0.0277381,10
0.517189,-0.219534,0.0491558,14
0.475024,-0.201832,0.0633721,17
0.548064,-0.232978,-0.0731216,14
0.458087,-0.194824,0.078843,14
0.494985,-0.210619,0.104563,14
0.499846,-0.21279,-0.0284708,14
0.47691,-0.203124,0.119674,11
0.497526,-0.213137,0.0283661,10
0.465144,-0.199361,0.0442751,15
0.507154,-0.217576,0.0677594,15
0.547248,-0.23489,-0.0731216,14
0.457404,-0.196422,0.078843,14
0.524789,-0.225576,-0.0299362,13
0.4941,-0.212486,0.124173,10
0.478447,-0.206944,0.0273194,10
0.464445,-0.200983,0.0442751,15
0.488176,-0.211455,0.065322,16
0.546424,-0.236799,-0.0731216,14
0.547334,-0.237306,0.0944864,11
0.479094,-0.207819,0.10151,14
0.589956,-0.256031,-0.0337044,11
0.47548,-0.206449,0.119674,11
0.496026,-0.216605,0.0283661,10
0.463741,-0.202603,0.0442751,15
0.545595,-0.238705,-0.0731216,14
0.456022,-0.19961,0.078843,14
0.489035,-0.214366,0.123273,11
0.469681,-0.207056,0.0269007,10
0.463031,-0.204221,0.0442751,15
0.455322,-0.201201,0.078843,14
0.517135,-0.228623,0.109906,13
0.474027,-0.209763,0.119674,11
0.570528,-0.252704,0.167197,10
0.479904,-0.213567,0.0275287,10
0.462315,-0.205836,0.0442751,15
0.454617,-0.202789,0.078843,14
0.496056,-0.221481,-0.0284708,14
0.459058,-0.205058,0.116075,11
0.506153,-0.226307,0.148562,12
0.461594,-0.207448,0.0442751,15
0.461825,-0.208037,0.0984574,15
0.49528,-0.223211,-0.0284708,14
0.461892,-0.208261,0.116975,11
0.519159,-0.235064,-0.152703,14
0.467487,-0.211963,0.0269007,10
0.460867,-0.209058,0.0442751,15
0.542208,-0.246299,-0.0731216,14
0.454067,-0.206643,0.115175,11
0.455081,-0.207968,-0.134068,16
0.451898,-0.206704,-0.114725,62
0.460134,-0.210666,0.0442751,15
0.487211,-0.223371,-0.0658095,16
0.442718,-0.203347,0.112476,12
0.566944,-0.260645,0.167197,10
0.478874,-0.220966,-0.141315,15
0.459359,-0.212351,0.0442751,15
0.550424,-0.254565,-0.0960508,42
0.46825,-0.216858,-0.0451467,35
0.450079,-0.209588,-0.133033,16
0.450407,-0.209933,-0.114725,62
0.458615,-0.213953,0.0442751,15
0.477602,-0.22342,-0.0276334,14
0.439141,-0.205615,0.129927,13
0.43889,-0.206152,-0.129927,17
0.502211,-0.23643,-0.0879162,47
0.456151,-0.214843,-0.0619096,17
0.451571,-0.213071,-0.026168,15
0.452171,-0.214223,-0.134068,33
0.498307,-0.236294,-0.127322,56
0.455398,-0.216434,-0.0619096,17
0.454431,-0.216363,-0.0263773,15
0.459343,-0.219982,0.0266913,21
0.44015,-0.212492,-0.130962,17
0.447432,-0.216201,-0.114725,62
0.449826,-0.219103,-0.134068,33
0.455474,-0.22422,-0.0804073,53
0.434476,-0.215298,-0.129927,17
0.445221,-0.220719,-0.114725,62
0.454728,-0.225729,-0.0804073,100
0.43615,-0.217076,0.112476,36
0.440673,-0.220192,-0.131998,16
0.444447,-0.222272,-0.114725,62
0.450766,-0.225924,-0.0619096,17
0.443312,-0.223545,-0.133033,16
0.443669,-0.223822,-0.114725,62
0.507962,-0.258373,-0.152703,14
0.463284,-0.23636,-0.0638595,17
0.507011,-0.260233,-0.152703,14
0.528733,-0.271499,-0.13722,50
0.466222,-0.239606,-0.101892,25
0.514689,-0.264741,-0.0916706,45
0.570127,-0.293383,-0.0787276,26
0.458759,-0.236276,-0.0451467,35
0.454471,-0.234269,-0.026796,15
0.51644,-0.26724,-0.155809,14
0.482857,-0.250182,-0.105708,24
0.492765,-0.255534,-0.0879162,95
0.59729,-0.310003,-0.0826274,85
0.514556,-0.267176,-0.0507246,62
0.443058,-0.230249,-0.026168,15
0.640499,-0.332996,-0.0126006,28
0.522355,-0.272616,-0.15788,13
0.639975,-0.334002,0.0126006,20
0.624916,-0.326421,0.0369492,13
0.49938,-0.260959,-0.109524,23
0.508511,-0.265843,0.0502017,13
0.600451,-0.313908,-0.107314,11
0.47494,-0.248398,0.0658095,32
0.587464,-0.30738,-0.0814087,100
0.543626,-0.284684,-0.0536879,100
0.520136,-0.272499,-0.0307735,13
0.731425,-0.383518,-0.0144157,55
0.535125,-0.281543,-0.162021,13
0.729052,-0.383735,0.0143808,27
0.75807,-0.399347,0.0449043,27
0.536726,-0.282744,-0.11792,21
0.726188,-0.382713,0.0718163,13
0.592362,-0.312317,-0.106063,11
0.681256,-0.359337,0.0945706,17
0.595166,-0.314061,-0.0826274,100
0.663821,-0.350438,0.11889,7
0.549726,-0.290206,-0.0543852,100
0.437476,-0.231046,0.0961677,15
0.586287,-0.309768,-0.0347511,10
0.744224,-0.393547,-0.0146949,100
0.5239,-0.277976,-0.158915,13
0.738306,-0.391903,0.0145902,70
0.746088,-0.396368,0.0442762,61
0.507995,-0.269878,-0.111814,23
0.742441,-0.394597,0.0735594,54
0.572083,-0.304182,-0.102621,13
0.692265,-0.368239,0.0962768,50
0.583552,-0.310541,-0.081165,100
0.683518,-0.363892,0.122645,42
0.545193,-0.29025,-0.0540366,100
0.519842,-0.276871,0.114485,12
0.627506,-0.334353,-0.0372632,9
0.429919,-0.22917,0.112476,12
0.721672,-0.384851,-0.0142761,17
0.546773,-0.292563,-0.166162,12
0.722829,-0.386928,0.014311,100
0.737658,-0.395197,0.0438575,100
0.531278,-0.28463,-0.117157,21
0.719986,-0.385891,0.0714677,81
0.574499,-0.308044,-0.103247,16
0.711967,-0.381913,0.0992016,61
0.584213,-0.313515,-0.0814087,100
0.696167,-0.373751,0.125148,71
0.537154,-0.288382,-0.0533393,100
0.598433,-0.321415,0.13204,10
0.626335,-0.336542,-0.0372632,9
0.542403,-0.291566,0.142169,9
0.72913,-0.392104,-0.0144506,30
0.521947,-0.281627,-0.158915,13
0.721474,-0.389449,0.014311,30
0.738031,-0.398719,0.0439622,100
0.519917,-0.280884,-0.114867,22
0.732657,-0.395981,0.0728622,100
0.556044,-0.300652,-0.100118,18
0.700154,-0.37873,0.0977392,100
0.590099,-0.319331,-0.0823837,100
0.696595,-0.377119,0.12546,100
0.55717,-0.301638,-0.0554311,100
0.687076,-0.372121,0.151884,14
0.670814,-0.363464,-0.0399847,8
0.599632,-0.325032,0.157466,7
0.747093,-0.405132,-0.0148345,34
0.517566,-0.281601,-0.15788,13
0.72011,-0.391965,0.014311,100
0.736635,-0.401293,0.0439622,50
0.536174,-0.292089,-0.118683,21
0.720774,-0.392815,0.0718163,100
0.572335,-0.312047,-0.103247,24
0.697085,-0.380221,0.0974955,100
0.585495,-0.319488,-0.0818962,100
0.707412,-0.386174,0.127651,37
0.56136,-0.306445,-0.055954,9
0.682327,-0.372635,0.151121,14
0.669541,-0.365804,-0.0399847,8
0.646374,-0.353293,0.170063,6
0.756202,-0.413494,-0.015044,30
0.533517,-0.292698,-0.163056,13
0.720491,-0.395438,0.0143459,100
0.707221,-0.388477,0.0422875,42
0.535151,-0.293959,-0.118683,21
0.738605,-0.405884,0.0737338,100
0.560856,-0.308333,-0.10137,24
0.706189,-0.388391,0.0989579,24
0.57742,-0.317702,-0.0809212,100
0.706059,-0.388641,0.127651,38
0.556796,-0.306481,-0.0556054,9
0.672423,-0.370279,0.149213,22
0.704997,-0.388377,-0.0421828,14
0.645136,-0.355547,0.170063,6
0.747749,-0.412269,-0.0149044,38
0.498683,-0.275856,-0.152703,14
0.734853,-0.406665,0.01466,32
0.728574,-0.403523,0.0436482,54
0.537557,-0.297727,-0.119446,20
0.733698,-0.406528,0.0733851,100
0.570142,-0.316035,-0.103247,27
0.704829,-0.390854,0.0989579,100
0.583251,-0.323567,-0.0818962,100
0.704698,-0.391103,0.127651,38
0.552238,-0.306489,-0.0552567,9
0.696873,-0.386919,0.154937,26
0.700145,-0.388896,-0.0419734,21
0.660926,-0.367262,0.174562,6
0.739314,-0.41099,-0.0147647,38
0.72819,-0.406305,0.0145553,33
0.714955,-0.399247,0.0429155,100
0.536514,-0.299602,-0.119446,20
0.732275,-0.409087,0.0733851,100
0.555241,-0.310314,-0.100744,24
0.706926,-0.39525,0.0994454,24
0.585583,-0.327539,-0.0823837,100
0.698157,-0.390667,0.126712,42
0.559859,-0.313279,-0.0561283,11
0.705797,-0.395103,0.157227,37
0.686585,-0.384506,-0.0412407,22
0.66814,-0.37433,0.176812,12
0.741364,-0.415524,-0.0148345,40
0.530423,-0.298269,-0.163056,13
0.718053,-0.403942,0.0143808,100
0.737922,-0.415458,0.0443809,55
0.542308,-0.305325,-0.120973,20
0.723899,-0.407729,0.0726879,100
0.542107,-0.305462,-0.0985537,19
0.703813,-0.39674,0.0992016,24
0.587894,-0.331532,-0.0828712,100
0.705392,-0.397955,0.128276,46
0.555291,-0.313274,-0.0557797,11
0.690735,-0.389845,0.154174,40
0.693934,-0.39181,-0.0417641,22
0.666829,-0.37666,0.176812,12
0.746873,-0.422044,-0.0149742,40
0.536101,-0.303929,-0.165127,12
0.720118,-0.408419,0.0144506,38
0.720835,-0.409158,0.0434388,100
0.554898,-0.31497,-0.124026,19
0.731134,-0.415173,0.0735594,100
0.546191,-0.310279,-0.0994923,24
0.704149,-0.400175,0.0994454,26
0.593636,-0.337506,-0.0838461,100
0.716018,-0.407251,0.130466,44
0.564585,-0.32112,-0.0568255,12
0.691077,-0.393225,0.154555,46
0.692562,-0.39423,-0.0417641,22
0.680751,-0.387664,0.180861,11
0.75582,-0.430588,-0.0151836,43
0.561872,-0.321137,-0.173409,11
0.730839,-0.417878,0.0146949,100
0.712468,-0.407704,0.0430202,100
0.540163,-0.309104,-0.120973,20
0.736596,-0.421682,0.0742567,100
0.567388,-0.324946,-0.10356,27
0.707916,-0.405591,0.100177,100
0.575232,-0.329705,-0.0814087,100
0.707737,-0.405817,0.129215,44
0.572103,-0.328044,-0.0576971,11
0.696512,-0.399542,0.156082,45
0.701576,-0.40261,-0.0423921,21
0.669254,-0.384216,0.178161,12
0.750844,-0.431232,-0.0151138,37
0.520575,-0.299949,-0.160985,13
0.724179,-0.417431,0.0145902,32
0.717961,-0.414181,0.0434388,51
0.552686,-0.318836,-0.124026,19
0.733394,-0.423255,0.0740824,100
0.574804,-0.331863,-0.105124,24
0.709933,-0.410046,0.100664,100
0.575796,-0.332704,-0.0816525,100
0.696055,-0.402354,0.127338,43
0.56578,-0.327048,-0.0571742,12
0.708709,-0.409833,0.159135,42
0.696709,-0.403056,-0.0421828,21
0.676342,-0.391431,0.180411,11
0.728568,-0.421826,-0.0146949,38
0.492797,-0.286239,-0.152703,14
0.722717,-0.419956,0.0145902,100
0.704496,-0.409533,0.0427061,100
0.537992,-0.312867,-0.120973,20
0.72158,-0.419801,0.0730365,100
0.563399,-0.327906,-0.103247,24
0.71536,-0.416516,0.101639,100
0.578062,-0.33671,-0.0821399,100
0.699838,-0.407642,0.128276,46
0.561192,-0.327015,-0.0568255,12
0.703882,-0.410327,0.158371,42
0.68322,-0.398442,-0.0414501,22
0.666555,-0.388879,0.178161,12
0.737528,-0.430286,-0.0149044,37
0.545142,-0.319194,-0.169268,12
0.710967,-0.416288,0.0143808,100
0.73408,-0.430166,0.0445902,55
0.57077,-0.334601,-0.128605,18
0.723547,-0.424333,0.0733851,100
0.565716,-0.331771,-0.103873,27
0.703702,-0.412859,0.100177,25
0.582078,-0.34164,-0.0828712,100
0.703521,-0.413083,0.129215,45
0.551457,-0.323926,-0.055954,12
0.687282,-0.40371,0.154937,39
0.683617,-0.401718,-0.0415548,15
0.666942,-0.392075,0.178611,12
0.742917,-0.436913,-0.015044,36
0.57403,-0.338669,-0.178585,11
0.71812,-0.423849,0.0145553,33
0.705059,-0.416473,0.0429155,100
0.562896,-0.332498,-0.127079,18
0.730712,-0.431798,0.0742567,100
0.54925,-0.324696,-0.101057,18
0.698839,-0.413292,0.0996891,100
0.580882,-0.343669,-0.0828712,100
0.713974,-0.42258,0.131405,46
0.553809,-0.327783,-0.0563026,11
0.696005,-0.412108,0.157227,50
0.680492,-0.403083,-0.0414501,15
0.667246,-0.395394,0.179061,12
0.748267,-0.443582,-0.0151836,30
0.523032,-0.311048,-0.163056,13
0.733821,-0.436578,0.0149044,100
0.720762,-0.429149,0.0439622,55
0.561732,-0.334461,-0.127079,18
0.727489,-0.433326,0.0740824,100
0.559992,-0.33369,-0.103247,21
0.704212,-0.419795,0.100664,100
0.569449,-0.339594,-0.0814087,100
0.707406,-0.422033,0.130466,44
0.556084,-0.331755,-0.0566512,11
0.692876,-0.413529,0.156845,44
0.679081,-0.405456,-0.0414501,15
0.662515,-0.395722,0.178161,12
0.750148,-0.448243,-0.0152534,31
0.518629,-0.310885,-0.162021,13
0.720288,-0.431938,0.01466,100
0.696997,-0.418302,0.0426015,43
0.533627,-0.320255,-0.120973,20
0.722556,-0.433812,0.0737338,100
0.55205,-0.331574,-0.101995,16
0.706146,-0.424295,0.101152,100
0.571663,-0.343626,-0.0818962,100
0.692385,-0.416356,0.127963,44
0.578766,-0.34817,-0.0590916,11
0.704887,-0.424041,0.159898,41
0.693063,-0.417093,-0.0423921,14
0.647774,-0.389991,0.174562,12
0.729736,-0.43951,-0.0148695,28
0.534019,-0.322777,-0.167197,12
0.727333,-0.439621,0.0148345,35
0.726293,-0.439339,0.0444856,54
0.53245,-0.322209,-0.120973,20
0.717552,-0.434394,0.0733851,100
0.569418,-0.344852,-0.105437,17
0.70466,-0.426758,0.101152,100
0.577251,-0.349733,-0.0828712,100
0.701063,-0.424914,0.129841,44
0.558806,-0.338825,-0.0571742,12
0.688221,-0.417458,0.156463,38
0.674455,-0.409269,-0.0413454,15
0.664664,-0.403487,0.179511,11
0.738453,-0.448281,-0.0150789,28
0.513091,-0.312578,-0.160985,13
0.722301,-0.440203,0.0147647,100
0.709408,-0.432515,0.0435435,100
0.531322,-0.324066,-0.120973,20
0.716031,-0.436896,0.0733851,100
0.561466,-0.34272,-0.104185,21
0.711563,-0.43451,0.10237,100
0.579353,-0.353916,-0.0833586,100
0.701262,-0.428388,0.130153,46
0.55082,-0.336618,-0.0564769,12
0.688434,-0.420882,0.156845,44
0.686653,-0.419958,-0.0421828,14
0.668238,-0.408856,0.180861,11
0.742001,-0.453987,-0.0151836,23
0.584434,-0.358844,-0.183762,10
0.71743,-0.440503,0.0146949,35
0.718104,-0.441262,0.0441716,55
0.530187,-0.325918,-0.120973,20
0.72129,-0.443567,0.0740824,100
0.556961,-0.342511,-0.10356,19
0.694901,-0.427506,0.100177,100
0.573105,-0.352714,-0.0826274,100
0.704808,-0.43394,0.131092,45
0.575088,-0.354212,-0.0590916,13
0.678677,-0.418015,0.154937,46
0.671653,-0.413851,-0.0413454,15
0.678491,-0.418227,0.18401,11
0.750624,-0.462871,-0.015393,32
0.566812,-0.350617,-0.178585,11
0.729491,-0.451423,0.0149742,100
0.69456,-0.429974,0.0428108,100
0.529104,-0.327675,-0.120973,20
0.72659,-0.450154,0.0747796,100
0.554083,-0.343412,-0.103247,15
0.705214,-0.437251,0.101883,100
0.568496,-0.35262,-0.0821399,100
0.705044,-0.437316,0.131405,46
0.551902,-0.34246,-0.0568255,11
0.690558,-0.428665,0.15799,36
0.663418,-0.411978,-0.0409267,15
0.645576,-0.401055,0.175462,12
0.74399,-0.462192,-0.0152883,24
0.559027,-0.348505,-0.176515,23
0.719505,-0.44855,0.0147996,32
0.713389,-0.445083,0.0440669,100
0.527957,-0.32952,-0.120973,20
0.721635,-0.450577,0.074431,100
0.551266,-0.344202,-0.102934,13
0.70376,-0.439588,0.101883,100
0.572374,-0.357659,-0.0828712,100
0.693463,-0.433492,0.129528,46
0.554082,-0.346498,-0.0571742,11
0.709107,-0.443444,0.162569,33
0.682367,-0.426887,-0.0421828,14
0.637635,-0.399058,0.173662,6
0.732202,-0.45842,-0.0150789,31
0.562714,-0.353538,-0.178068,22
0.71955,-0.452248,0.0148345,33
0.721896,-0.454075,0.0446949,54
0.526803,-0.331361,-0.120973,20
0.718371,-0.452032,0.0742567,100
0.573405,-0.360952,-0.107314,12
0.713903,-0.449569,0.103589,100
0.572739,-0.360813,-0.0831149,100
0.696883,-0.439191,0.130466,45
0.551183,-0.347367,-0.0569999,11
0.692531,-0.436616,0.159135,36
0.675729,-0.426189,-0.0418688,14
0.66089,-0.41699,0.180411,11
0.727135,-0.458966,-0.0150091,19
0.569638,-0.360667,-0.180656,22
0.707831,-0.448337,0.0146251,100
0.710186,-0.450176,0.0440669,100
0.525643,-0.333197,-0.120973,20
0.708376,-0.449202,0.0733851,100
0.53878,-0.341788,-0.101057,13
0.698921,-0.443549,0.101639,100
0.57818,-0.367066,-0.0840899,100
0.702016,-0.445857,0.131718,45
0.544922,-0.346085,-0.0564769,11
0.682717,-0.433767,0.157227,37
0.667495,-0.424259,-0.0414501,7
0.670941,-0.426614,0.18356,5
0.737339,-0.469014,-0.0152534,30
0.568375,-0.362653,-0.180656,33
0.714689,-0.456185,0.0147996,38
0.715343,-0.456953,0.0444856,100
0.524477,-0.33503,-0.120973,20
0.723592,-0.462401,0.0751282,100
0.534255,-0.341539,-0.100431,12
0.697368,-0.445986,0.101639,26
0.568534,-0.363733,-0.0828712,100
0.698792,-0.44724,0.131405,46
0.54371,-0.347985,-0.0564769,11
