x,y,z,intensity
-0.906639,-0.3444,-0.188519,12
-1.55532,-0.590501,0.14555,76
-1.58138,-0.599764,0.207665,49
-1.17312,-0.444691,-0.154043,3
-0.840496,-0.318436,0.142355,10
-0.952134,-0.360541,-0.0890732,28
-5.4016,-2.0454,1.12272,109
-0.948921,-0.359135,-0.0531733,11
-5.4207,-2.05048,1.33801,74
-1.23265,-0.466024,-0.0230023,4
-1.35535,-0.512146,0.388229,81
-1.41212,-0.531343,-0.404275,15
-1.49727,-0.563384,0.0279239,44
-1.51434,-0.569203,0.0847843,94
-0.909733,-0.341765,-0.188901,24
-1.56867,-0.588998,0.146596,73
-1.59834,-0.59982,0.209615,48
-0.944195,-0.354147,-0.123819,14
-0.834204,-0.312726,0.141104,11
-0.945924,-0.35442,-0.0883759,38
-5.39987,-2.02215,1.12081,111
-0.944619,-0.353554,-0.0528593,18
-5.40628,-2.0224,1.33261,87
-1.32791,-0.496751,-0.0247475,4
-1.36075,-0.508765,0.389264,73
-1.40129,-0.521693,-0.400652,41
-1.5012,-0.55859,0.0279588,43
-1.5239,-0.566432,0.0852029,94
-0.898038,-0.333799,-0.18623,27
-1.55577,-0.577968,0.145201,51
-5.33942,-1.98147,0.699286,89
-1.41823,-0.526027,-0.185729,1
-0.83164,-0.308293,0.140478,11
-1.06672,-0.395438,-0.0995319,18
-5.40137,-2.00124,1.11967,109
-0.945847,-0.350255,-0.0528593,35
-5.40599,-2.00081,1.33081,86
-1.46851,-0.543218,-0.0273305,10
-1.35898,-0.502434,0.388229,78
-1.39404,-0.51346,-0.398064,80
-1.49376,-0.549892,0.0277842,44
-1.53337,-0.563866,0.0856216,97
-0.882614,-0.324564,-0.182795,7
-5.34258,-1.96145,0.698799,99
-1.4331,-0.52586,-0.187435,4
-0.840129,-0.308109,0.14173,11
-1.06809,-0.391712,-0.0995319,18
-5.40279,-1.98035,1.11852,111
-0.937687,-0.343516,-0.052336,22
-5.41294,-1.98193,1.33081,86
-1.46664,-0.536715,-0.0272607,17
-1.34984,-0.493706,0.385123,67
-1.39219,-0.507268,-0.397028,92
-1.48439,-0.540569,0.0275748,44
-1.54096,-0.560559,0.0859357,81
-3.8498,-1.39969,0.358384,12
-5.3382,-1.93873,0.697336,96
-1.43866,-0.522209,-0.187923,4
-0.830058,-0.301133,0.139852,16
-1.09005,-0.395455,-0.101449,9
-5.38014,-1.95077,1.11242,111
-0.93137,-0.337519,-0.0519173,17
-5.40884,-1.95904,1.32811,87
-1.44406,-0.522744,-0.0268069,27
-1.33703,-0.483733,0.380982,52
-1.40123,-0.505025,-0.399099,87
-1.48627,-0.535384,0.0275748,45
-1.53539,-0.552471,0.085517,53
-0.956904,-0.344318,-0.197678,1
-3.86029,-1.38827,0.358907,13
-5.32438,-1.9127,0.694655,94
-1.43487,-0.515171,-0.187191,1
-0.840401,-0.301569,0.141417,15
-1.09518,-0.392994,-0.101798,8
-5.38137,-1.92999,1.11127,109
-0.925022,-0.33157,-0.0514986,14
-5.41564,-1.94015,1.32811,86
-1.44964,-0.519048,-0.0268767,33
-1.35326,-0.48427,0.385123,61
-1.4048,-0.50078,-0.399617,77
-1.49002,-0.530864,0.0276097,43
-1.53731,-0.547108,0.085517,43
-0.900762,-0.32057,-0.185848,5
-3.8576,-1.37211,0.35821,11
-5.32728,-1.89277,0.694168,94
-1.4404,-0.511488,-0.187679,1
-0.835864,-0.296652,0.140478,15
-1.09654,-0.389169,-0.101798,10
-5.39363,-1.91316,1.11242,111
-0.931821,-0.330341,-0.0518126,11
-5.39667,-1.91212,1.32181,87
-1.4194,-0.502636,-0.0262833,28
-1.37133,-0.485344,0.389782,28
-1.41929,-0.500369,-0.40324,57
-1.49563,-0.526988,0.0276795,41
-1.54486,-0.543728,0.085831,7
-1.42967,-0.503185,-0.294609,3
-3.85673,-1.35666,0.357687,5
-1.42004,-0.499238,-0.238406,2
-5.33573,-1.87482,0.694412,96
-1.46465,-0.51435,-0.190604,1
-0.829438,-0.291115,0.139227,20
-1.08286,-0.38006,-0.100403,11
-5.39286,-1.89173,1.11089,113
-0.936738,-0.328408,-0.0520219,6
-5.40698,-1.89456,1.32271,86
-1.36264,-0.47719,-0.0252013,26
-1.39854,-0.489489,0.397028,22
-1.39914,-0.48778,-0.397028,10
-1.49369,-0.520449,0.0276097,39
-2.31331,-0.805581,-0.565527,1
-3.82891,-1.33337,0.212484,13
-1.4481,-0.503999,-0.298044,7
-3.86144,-1.34319,0.357687,12
-5.33662,-1.85423,0.69368,92
-0.830399,-0.288363,0.139227,16
-1.07665,-0.373665,-0.0997062,11
-5.38645,-1.86839,1.10822,109
-0.945427,-0.327753,-0.0524406,7
-5.40988,-1.8744,1.32181,87
-1.29997,-0.45041,-0.0240145,19
-1.41294,-0.489274,0.400652,12
-2.17157,-0.748579,-0.615472,20
-1.48595,-0.512234,0.0274352,34
-2.31597,-0.797906,-0.565527,1
-3.83732,-1.3213,0.212693,13
-1.47027,-0.505969,-0.302241,9
-3.85669,-1.32646,0.356816,13
-5.33147,-1.83265,0.692218,90
-0.831401,-0.285463,0.139227,20
-1.04402,-0.358264,-0.0965686,6
-5.37962,-1.84605,1.10555,107
-0.929505,-0.318785,-0.0514986,7
-5.40685,-1.85329,1.31956,92
-1.23343,-0.422539,-0.0227579,18
-1.41646,-0.484964,0.40117,8
-2.20147,-0.750727,-0.623236,20
-1.48773,-0.507044,0.0274352,28
-2.28923,-0.779762,-0.558329,2
-3.83624,-1.30596,0.212379,13
-1.48681,-0.506152,-0.305294,10
-3.86295,-1.3143,0.35699,13
-5.32656,-1.8102,0.690755,88
-0.836133,-0.283829,0.139852,16
-1.06596,-0.361844,-0.098486,6
-5.38231,-1.826,1.10478,111
-0.924938,-0.313614,-0.0511846,7
-5.39852,-1.8294,1.31596,92
-1.21975,-0.4131,-0.0224787,25
-1.41998,-0.480636,0.401687,10
-2.22421,-0.749826,-0.62893,18
-1.50086,-0.505679,0.0276446,21
-2.35103,-0.791668,-0.572725,1
-3.82563,-1.28747,0.211542,15
-1.49415,-0.502837,-0.306439,10
-3.86185,-1.29891,0.356467,13
-5.32532,-1.78907,0.689781,92
-0.833373,-0.279652,0.139227,16
-1.04266,-0.349881,-0.0962199,6
-5.38307,-1.80533,1.10364,106
-0.927921,-0.311018,-0.0512892,7
-5.39379,-1.80683,1.31326,92
-1.21739,-0.40757,-0.0224089,30
-1.42348,-0.47629,0.402205,11
-2.23598,-0.745111,-0.631518,14
-1.5159,-0.50486,0.0278889,11
-3.8223,-1.27225,0.211123,13
-1.4959,-0.497619,-0.306439,13
-3.86069,-1.28353,0.355944,12
-5.3353,-1.77172,0.690268,88
-0.824922,-0.273775,0.137662,26
-1.05522,-0.350003,-0.0972658,6
-5.38188,-1.78406,1.10211,106
-0.929001,-0.307777,-0.0512892,7
-5.39235,-1.78648,1.31146,89
-1.20165,-0.397874,-0.0220947,33
-1.41588,-0.468532,0.399617,12
-2.25678,-0.743739,-0.636695,13
-3.81385,-1.25614,0.0700889,9
-3.83598,-1.26269,0.211647,15
-1.51432,-0.498177,-0.309874,14
-3.85735,-1.26823,0.355247,13
-5.32983,-1.7503,0.688806,88
-1.52766,-0.501678,-0.197428,10
-0.823948,-0.270422,0.137349,18
-1.01283,-0.33222,-0.0932566,4
-5.37844,-1.76314,1.1002,107
-0.941404,-0.308426,-0.0519173,6
-5.39825,-1.76859,1.31146,92
-1.19916,-0.392642,-0.0220249,34
-5.08217,-1.66308,1.43282,30
-2.28312,-0.744033,-0.643424,13
-3.79137,-1.23482,0.0696002,13
-3.83847,-1.24867,0.211542,15
-1.5309,-0.498011,-0.312927,24
-3.84448,-1.24989,0.353678,13
-5.32805,-1.73016,0.687831,90
-1.54451,-0.501245,-0.199378,12
-0.832403,-0.269983,0.138601,17
-1.00641,-0.326225,-0.0925594,4
-5.37119,-1.74106,1.09753,104
-0.936722,-0.303456,-0.0516033,7
-5.40439,-1.74974,1.31146,92
-1.21194,-0.392147,-0.0222344,45
-5.08427,-1.64413,1.43179,38
-2.31341,-0.744537,-0.651189,14
-3.79566,-1.22158,0.0696002,13
-3.839,-1.23405,0.211333,15
-1.53646,-0.493598,-0.31369,30
-3.85473,-1.23762,0.354201,15
-5.31894,-1.7067,0.685881,94
-1.5349,-0.492213,-0.197916,12
-0.829578,-0.265869,0.137975,17
-1.01513,-0.325141,-0.0932566,4
-5.37005,-1.71897,1.09601,104
-0.935925,-0.299412,-0.0514986,7
-5.39591,-1.72517,1.30787,89
-1.21521,-0.388524,-0.0222693,54
-5.08262,-1.62403,1.42972,35
-2.34361,-0.745239,-0.658953,21
-3.80393,-1.20887,0.06967,13
-5.15405,-1.63694,-1.24848,2
-3.82615,-1.2152,0.210391,15
-1.5494,-0.491795,-0.31598,37
-3.86092,-1.22476,0.354375,13
-5.32705,-1.68779,0.686124,96
-1.5367,-0.486584,-0.197916,10
-0.826735,-0.261779,0.137349,22
-1.01436,-0.320994,-0.0930823,7
-5.37602,-1.70021,1.09601,104
-0.933156,-0.294939,-0.0512892,7
-5.38889,-1.70221,1.30472,95
-1.20702,-0.381268,-0.0220947,63
-5.09931,-1.60976,1.43282,41
-2.36832,-0.744002,-0.665165,24
-3.81554,-1.19865,0.0698096,14
-5.14458,-1.61517,-1.24488,2
-3.83418,-1.20303,0.2106,15
-1.54736,-0.485209,-0.315216,40
-3.86137,-1.21008,0.354027,15
-5.32504,-1.66775,0.685149,96
-1.54967,-0.485043,-0.199378,7
-0.831414,-0.260072,0.137975,21
-1.01928,-0.31864,-0.093431,7
-5.37788,-1.6812,1.09524,104
-0.932223,-0.291248,-0.0511846,10
-5.38149,-1.68027,1.30157,92
-1.20644,-0.376456,-0.0220598,61
-5.09752,-1.58965,1.43075,41
-2.37815,-0.738435,-0.667235,34
-3.80825,-1.18176,0.0696002,15
-3.83624,-1.18972,0.210495,15
-1.56396,-0.484725,-0.318269,40
-3.85204,-1.19314,0.352806,15
-1.56624,-0.484832,-0.259681,2
-5.32514,-1.64739,0.684418,94
-1.55894,-0.481977,-0.200353,3
-0.828498,-0.256146,0.137349,22
-1.03746,-0.320552,-0.0949998,9
-5.37621,-1.6601,1.09372,106
-0.940867,-0.290348,-0.0516033,9
-5.38918,-1.66205,1.30202,95
-1.2115,-0.373632,-0.0221297,55
-5.09907,-1.5716,1.42972,41
-2.39918,-0.735794,-0.672412,38
-3.79685,-1.16444,0.069321,13
-2.52835,-0.774925,-0.610517,1
-3.83273,-1.17398,0.210077,15
-1.56564,-0.479263,-0.318269,30
-3.85047,-1.17794,0.352284,15
-5.31919,-1.62624,0.682956,92
-2.3294,-0.711726,-0.299067,2
-0.836944,-0.25556,0.138601,21
-1.04429,-0.318673,-0.0955227,13
-5.36479,-1.63711,1.09028,109
-0.930363,-0.283731,-0.0509752,7
-5.37789,-1.63905,1.29797,82
-1.21662,-0.370566,-0.0221995,51
-5.10268,-1.55323,1.4292,41
-2.41653,-0.731894,-0.676553,38
-3.80683,-1.15225,0.0694257,15
-2.40807,-0.728414,-0.580824,1
-3.82745,-1.15703,0.209553,15
-3.85647,-1.16507,0.352458,15
-5.31181,-1.60272,0.68125,99
-2.3548,-0.71006,-0.301992,2
-0.832201,-0.250781,0.137662,26
-1.03586,-0.312152,-0.0946511,6
-5.36511,-1.61574,1.08914,107
-0.931396,-0.280318,-0.0509752,7
-5.38573,-1.6199,1.29842,95
-1.2218,-0.367256,-0.0222693,51
-5.11019,-1.53507,1.42972,44
-2.42277,-0.724562,-0.677588,41
-3.80508,-1.13724,0.069321,15
-2.36391,-0.706061,-0.569576,3
-3.81998,-1.14024,0.208925,15
-2.41174,-0.719889,-0.489234,13
-3.86624,-1.15331,0.352981,16
-5.31356,-1.58303,0.680762,96
-2.37059,-0.705802,-0.303698,1
-0.834964,-0.248438,0.137975,26
-1.02548,-0.305125,-0.0936053,7
-5.3726,-1.59756,1.08952,109
-0.917053,-0.272514,-0.0501379,6
-5.38201,-1.59831,1.29617,89
-1.22308,-0.362989,-0.0222693,40
-5.11552,-1.51723,1.42972,44
-2.35858,-0.696406,-0.658953,63
-3.80903,-1.12395,0.069321,13
-2.40935,-0.710483,-0.579924,2
-3.82374,-1.12756,0.208925,15
-2.42177,-0.713686,-0.490761,13
-3.85877,-1.13643,0.351935,15
-5.31525,-1.56336,0.680275,96
-2.67014,-0.784853,-0.341722,1
-0.824413,-0.242325,0.136098,18
-1.01125,-0.297051,-0.0922108,7
-5.37626,-1.57824,1.08914,107
-0.937164,-0.274934,-0.0511846,7
-5.3782,-1.57677,1.29392,87
-1.22044,-0.357806,-0.0221995,30
-5.11867,-1.49971,1.4292,46
-2.34802,-0.684385,-0.65533,27
-3.80506,-1.10907,0.0691813,13
-2.42105,-0.705214,-0.582173,2
-3.82382,-1.11309,0.208716,15
-2.46195,-0.716196,-0.498393,13
-3.83976,-1.11628,0.349843,13
-5.3204,-1.54572,0.680275,42
-2.68417,-0.779315,-0.343184,1
-0.830945,-0.241097,0.137037,27
-1.00462,-0.2913,-0.0915135,7
-5.3645,-1.55549,1.0857,106
-0.939988,-0.272381,-0.0512892,7
-5.38153,-1.55839,1.29347,89
-1.2236,-0.354099,-0.0222344,30
-5.11088,-1.47808,1.42558,41
-2.38369,-0.686214,-0.664647,22
-3.7993,-1.09302,0.0690068,15
-2.44223,-0.702143,-0.586672,2
-3.83152,-1.10084,0.208925,15
-2.49451,-0.716701,-0.504499,13
-3.83578,-1.10134,0.349146,13
-5.31432,-1.52386,0.678812,67
-2.7174,-0.77869,-0.347084,1
-0.822286,-0.235476,0.135472,19
-1.02091,-0.292355,-0.092908,4
-5.35291,-1.53189,1.08227,107
-0.927492,-0.265253,-0.0505565,8
-5.38132,-1.53799,1.29212,87
-1.23252,-0.352023,-0.022374,33
-5.12344,-1.46235,1.42765,44
-2.40837,-0.684225,-0.670859,10
-3.79924,-1.07866,0.068937,15
-2.45029,-0.695209,-0.588022,1
-3.82381,-1.08419,0.208297,15
-2.52155,-0.714952,-0.50946,10
-3.8511,-1.0912,0.350192,13
-2.74834,-0.77822,-0.452409,1
-5.29095,-1.49719,0.675156,60
-2.8309,-0.80053,-0.361221,1
-0.834509,-0.235828,0.137349,22
-0.987411,-0.279037,-0.0897704,4
-5.34688,-1.50999,1.07998,111
-0.918801,-0.259302,-0.0500332,9
-5.38103,-1.51761,1.29077,89
-1.24914,-0.352058,-0.0226532,36
-5.12851,-1.44446,1.42765,44
-1.66669,-0.46723,-0.463804,1
-3.80106,-1.06485,0.0689021,15
-2.54653,-0.71292,-0.610517,1
-3.8218,-1.06922,0.207983,15
-2.53726,-0.709849,-0.512131,3
-3.8568,-1.07829,0.350366,15
-5.29806,-1.47925,0.6754,26
-2.75337,-0.768236,-0.350984,1
-0.827716,-0.230791,0.136098,23
-0.988379,-0.275588,-0.0897704,4
-5.3559,-1.49237,1.08074,111
-0.917777,-0.255557,-0.0499285,9
-5.36752,-1.49359,1.28627,84
-1.25999,-0.350375,-0.0228277,40
-5.13538,-1.42706,1.42816,49
-1.60873,-0.44493,-0.447239,7
-3.80668,-1.05211,0.068937,15
-3.81396,-1.05269,0.207355,15
-1.65782,-0.457575,-0.334297,1
-3.85478,-1.06323,0.349843,13
-5.29745,-1.45916,0.674669,6
-2.779,-0.764942,-0.353909,1
-0.828516,-0.2279,0.136098,23
-0.98165,-0.270023,-0.0890732,4
-5.3573,-1.47263,1.07998,113
-0.928293,-0.254997,-0.0504519,8
-5.3727,-1.47485,1.28627,82
-1.25349,-0.343858,-0.0226881,30
-5.13661,-1.40811,1.42713,41
-1.60281,-0.437278,-0.445169,13
-3.79875,-1.03566,0.0687276,16
-1.6527,-0.450269,-0.395464,1
-3.82339,-1.04094,0.207669,15
-1.62342,-0.441986,-0.327047,3
-3.84694,-1.04663,0.348797,16
-5.35615,-1.45523,0.681493,1
-1.728,-0.469162,-0.219852,1
-0.815961,-0.221386,0.133908,15
-0.924901,-0.250944,-0.0838438,5
-5.35482,-1.45186,1.07845,73
-0.925321,-0.250711,-0.0502425,9
-5.37405,-1.45506,1.28537,82
-1.2489,-0.337913,-0.0225834,12
-5.12284,-1.38513,1.42195,39
-1.60806,-0.432684,-0.446204,14
-3.79076,-1.01928,0.0685181,16
-1.6505,-0.443486,-0.394564,3
-3.83086,-1.02863,0.207878,15
-1.62874,-0.437335,-0.32781,13
-3.84094,-1.03062,0.347926,15
-0.579098,-0.15506,-0.0736091,14
-0.830087,-0.222111,0.136098,4
-0.910374,-0.243593,-0.0824493,6
-5.42055,-1.44939,1.09066,35
-0.93005,-0.248511,-0.0504519,8
-5.40734,-1.44384,1.29212,30
-3.79464,-1.01251,-0.0685531,12
-5.13138,-1.36823,1.42299,36
-1.6133,-0.428059,-0.447239,9
-3.79429,-1.00604,0.0685181,16
-1.62378,-0.430235,-0.387816,4
-3.82477,-1.01269,0.207355,15
-1.63595,-0.433154,-0.328955,13
-3.84067,-1.01618,0.347577,13
-1.73406,-0.458481,-0.284085,1
-3.9613,-1.04662,0.503077,1
-0.579635,-0.153038,-0.0736091,14
-0.903513,-0.238381,-0.0817521,6
-5.48253,-1.44548,1.10211,36
-0.919324,-0.242209,-0.0498238,9
-5.49903,-1.44777,1.31281,40
-3.79235,-0.997736,-0.0684483,13
-5.14173,-1.35179,1.42454,41
-1.67459,-0.438071,-0.463804,1
-3.80165,-0.993801,0.068588,15
-1.66864,-0.435893,-0.398163,1
-3.81089,-0.994795,0.206413,13
-1.63935,-0.427937,-0.329336,7
-3.84997,-1.00428,0.3481,15
-3.93035,-1.02378,0.498689,1
-0.507165,-0.132012,-0.064347,17
-0.961617,-0.250124,0.157373,1
-0.912052,-0.237232,-0.0824493,6
-5.55215,-1.44312,1.11509,37
-0.914364,-0.237492,-0.0495098,10
-5.5531,-1.4413,1.32451,35
-3.78613,-0.981981,-0.0682738,12
-5.15016,-1.3348,1.42558,41
-2.62266,-0.676313,-0.725729,13
-3.79929,-0.979026,0.0684832,13
-2.68357,-0.69102,-0.639761,2
-3.81241,-0.980989,0.206308,13
-1.62373,-0.417809,-0.325902,1
-3.84767,-0.989344,0.347577,13
-3.96082,-1.01697,0.502102,1
-0.496086,-0.127281,-0.0628846,17
-0.889715,-0.228109,-0.0803576,7
-5.63703,-1.4442,1.13112,36
-0.926797,-0.237272,-0.0501379,9
-5.62228,-1.43833,1.33981,37
-3.77985,-0.966282,-0.0680993,11
-5.15104,-1.31586,1.42454,41
-2.6456,-0.672388,-0.731423,10
-3.79299,-0.963297,0.0683087,12
-2.73318,-0.693633,-0.651008,4
-3.81387,-0.967184,0.206204,11
-3.13236,-0.794356,-0.628143,5
-3.83565,-0.971992,0.346183,12
-2.80347,-0.709907,-0.45804,1
-3.98744,-1.00898,0.505027,1
-0.500376,-0.126522,-0.0633721,17
-0.793922,-0.200598,-0.071642,14
-5.6801,-1.43412,1.13875,29
-0.92762,-0.234035,-0.0501379,9
-5.67262,-1.43013,1.35061,26
-3.76963,-0.949663,-0.067855,8
-5.14624,-1.29551,1.42195,36
-2.67979,-0.671127,-0.740223,5
-3.78663,-0.947625,0.0681342,7
-2.77907,-0.694962,-0.661356,3
-3.81706,-0.954532,0.206204,6
-3.1675,-0.791507,-0.634631,2
-3.84288,-0.959563,0.346531,9
-2.84043,-0.708725,-0.463672,1
-0.535486,-0.133413,-0.0677594,32
-0.728882,-0.181461,-0.0657154,19
-5.74032,-1.42803,1.14982,21
-0.920678,-0.228868,-0.0497192,9
-5.7589,-1.43052,1.36995,13
-3.78246,-0.939568,-0.0680295,2
-5.14863,-1.27797,1.42143,21
-2.8059,-0.692313,-0.774387,1
-3.78393,-0.933625,0.0680295,3
-2.8192,-0.695072,-0.670354,2
-3.82425,-0.942156,0.206413,2
-3.27509,-0.806258,-0.65562,1
-3.84814,-0.946619,0.346706,3
-0.503154,-0.123586,-0.0636158,34
-0.621149,-0.152339,-0.055954,54
-5.79842,-1.42208,1.1605,14
-0.907853,-0.222486,-0.0489865,10
-5.8204,-1.42532,1.38345,13
-3.81874,-0.934439,-0.0686229,1
-5.13805,-1.25632,1.41729,2
-3.83186,-0.931273,0.0688323,1
-3.80616,-0.923621,0.205262,1
-3.84158,-0.931505,0.345834,1
-0.507441,-0.122763,-0.0641033,34
-0.590665,-0.142788,-0.053165,88
-0.922214,-0.222596,-0.0497192,13
-5.90301,-1.42373,1.40189,1
-3.84239,-0.918221,0.207041,1
-3.83899,-0.916702,0.345311,1
-0.492418,-0.117311,-0.0621534,35
-0.562086,-0.133804,-0.0505503,100
-5.79674,-1.37884,1.15821,4
-0.919099,-0.218452,-0.0495098,10
-5.79798,-1.377,1.3758,1
-3.8563,-0.915145,-0.0691813,1
-3.92722,-0.924015,0.211437,1
-3.28322,-0.772491,-0.65562,1
-0.506353,-0.118764,-0.0638595,17
-0.523753,-0.122749,-0.0470641,10
-5.78623,-1.35502,1.15516,0
-0.915967,-0.214332,-0.0493005,10
-3.85947,-0.901678,-0.0691813,1
-3.00336,-0.697248,-0.82615,1
-3.81413,-0.884769,0.0683436,1
-3.22469,-0.746851,-0.643408,1
-0.549317,-0.12682,-0.0692218,15
-0.528062,-0.121816,-0.0474127,9
-5.74501,-1.32423,1.146,1
-0.897246,-0.206651,-0.0482538,4
-5.82264,-1.33998,1.3794,1
-2.9248,-0.668257,-0.803892,3
-3.8094,-0.869669,0.068204,1
-3.86348,-0.880597,0.207669,1
-3.14305,-0.716392,-0.626617,1
-0.5846,-0.132818,-0.0736091,14
-0.516826,-0.117325,-0.0463669,9
-5.77449,-1.30981,1.15096,5
-0.886275,-0.200869,-0.0476257,4
-5.80447,-1.31448,1.374,8
-3.77205,-0.853528,-0.0675059,1
-5.17615,-1.17029,1.42195,2
-2.93088,-0.65889,-0.804927,7
-3.80265,-0.854176,0.0680295,3
-3.00997,-0.675568,-0.712195,1
-3.81586,-0.855742,0.204948,1
-3.11872,-0.699402,-0.621274,15
-3.09967,-0.693994,-0.503093,1
-0.58506,-0.130776,-0.0736091,14
-0.542511,-0.121166,-0.0486329,10
-5.79435,-1.29307,1.15401,9
-5.7881,-1.28955,1.36905,17
-3.76915,-0.839052,-0.0674012,2
-5.17077,-1.15012,1.41936,18
-2.98409,-0.659918,-0.818903,1
-3.78608,-0.836583,0.0676804,6
-3.01993,-0.666737,-0.713995,2
-3.03262,-0.667874,-0.49183,1
-0.57388,-0.126176,-0.0721467,15
-0.535146,-0.117562,-0.0479357,10
-5.80458,-1.2741,1.15516,15
-0.614531,-0.134776,-0.0329717,11
-5.79447,-1.26976,1.3695,24
-3.79354,-0.830595,-0.0677852,1
-5.18042,-1.1333,1.42092,31
-0.558766,-0.121524,-0.153221,14
-3.77921,-0.821238,0.0675059,3
-0.605076,-0.131264,0.0324483,8
-0.648688,-0.140488,-0.105124,36
-0.578176,-0.125112,0.0726341,14
-0.617003,-0.133401,-0.0775089,100
-0.539448,-0.116534,-0.0482843,10
-5.80132,-1.25217,1.15363,25
-0.605236,-0.130525,-0.0324483,72
-5.79316,-1.24829,1.36815,34
-0.600155,-0.12921,-0.0107158,100
-5.17112,-1.11237,1.41729,34
-0.55163,-0.117957,-0.15115,29
-0.602313,-0.128685,0.0107507,39
-0.595764,-0.127068,0.0319249,52
-0.567052,-0.120841,0.0507246,13
-0.595077,-0.126705,-0.0963636,42
-0.570843,-0.121441,0.0716592,14
-0.601931,-0.127944,-0.075559,100
-0.57582,-0.122289,0.0932349,12
-0.559341,-0.11879,-0.0500274,13
-5.78069,-1.22662,1.14867,28
-0.609595,-0.12924,-0.0326576,100
-5.79176,-1.22685,1.3668,32
-0.598646,-0.1267,-0.0106809,10
-5.16174,-1.09151,1.41367,31
-0.597411,-0.125568,-0.163574,13
-0.589059,-0.123705,0.0105063,100
-0.615751,-0.129086,0.0329717,100
-0.577221,-0.120903,0.0515962,40
-0.524629,-0.109696,0.0658095,32
-0.579056,-0.120971,-0.0726341,14
-0.54337,-0.113417,0.0879162,12
-0.544149,-0.11358,-0.0486329,66
-5.75611,-1.20042,1.14295,28
-0.54943,-0.114482,-0.0294128,13
-5.79982,-1.20742,1.3677,24
-0.542309,-0.1128,-0.00966863,89
-5.17309,-1.07506,1.41574,26
-0.534651,-0.110332,0.00952901,31
-0.547732,-0.112832,0.0293081,78
-0.589349,-0.121298,0.0526421,39
-0.52112,-0.107065,0.065322,33
-0.563919,-0.115756,-0.0706842,15
-0.539893,-0.110726,0.0872904,39
-0.583578,-0.119685,-0.0521191,30
-5.7718,-1.18268,1.14524,18
-0.604613,-0.123779,-0.0323436,12
-5.77727,-1.1817,1.3614,17
-0.548577,-0.112108,-0.00977335,88
-5.18438,-1.05854,1.41781,21
-0.57227,-0.116014,0.0101922,14
-0.54225,-0.109731,0.0289941,9
-0.58391,-0.118055,0.0521191,13
-0.579866,-0.117027,0.0726341,14
-0.568211,-0.114572,-0.0711717,15
-0.534467,-0.10767,0.0863518,13
-0.580086,-0.116861,-0.0517705,30
-5.76627,-1.16059,1.14333,9
-0.632454,-0.127181,-0.033809,11
-5.79856,-1.16498,1.36545,11
-0.548965,-0.110192,-0.00977335,44
-5.19751,-1.04234,1.4204,13
-0.939722,-0.187263,-0.256748,1
-0.541292,-0.107768,0.00963373,15
-0.521063,-0.103646,0.0278427,10
-0.596044,-0.118344,0.053165,12
-0.580271,-0.115002,0.0726341,14
-0.564694,-0.111915,-0.0706842,15
-0.585202,-0.115873,0.0944864,11
-0.58049,-0.114835,-0.0517705,30
-5.79918,-1.14617,1.14905,4
-0.887619,-0.17527,-0.0474164,4
-5.81386,-1.14801,1.36815,3
-0.529708,-0.104501,-0.0094243,46
-5.18388,-1.02174,1.41574,2
-0.904316,-0.177092,-0.246913,9
-0.651546,-0.127474,0.0115884,11
-0.631173,-0.123374,0.0337044,8
-0.917184,-0.179113,-0.18165,4
-0.522195,-0.101694,-0.065322,16
-5.79378,-1.12725,0.934852,1
-0.608249,-0.118232,-0.0542109,28
-5.79331,-1.12506,1.14714,0
-0.888196,-0.172326,-0.0474164,4
-5.82337,-1.12984,1.3695,1
-0.573241,-0.111115,-0.0101922,41
-5.24035,-1.01482,1.43023,2
-0.906796,-0.174457,-0.247431,24
-0.81692,-0.157018,0.0145204,6
-0.874595,-0.167946,-0.205605,14
-0.90042,-0.172742,-0.178216,9
-0.9041,-0.17312,-0.145797,17
-0.526446,-0.100616,-0.0658095,16
-5.73365,-1.09479,0.924528,2
-0.671285,-0.128054,-0.0597888,24
-5.78351,-1.10326,1.14447,1
-0.892686,-0.170128,-0.0476257,21
-5.82154,-1.10841,1.36815,3
-0.870261,-0.165539,-0.0154628,25
-5.24765,-0.997249,1.43127,2
-0.901734,-0.170059,-0.245878,21
-0.911786,-0.171954,0.0161958,17
-0.828298,-0.15591,0.0441716,4
-0.881752,-0.165812,-0.174399,17
-0.902787,-0.169441,-0.145484,36
-6.04038,-1.1337,0.754615,1
-0.542403,-0.101704,-0.0677594,16
-5.73744,-1.07477,0.924528,7
-0.804898,-0.150633,-0.071642,14
-5.77401,-1.07953,1.1418,3
-0.90312,-0.168688,-0.0481491,28
-5.79683,-1.08171,1.3614,8
-0.919977,-0.171671,-0.0163355,55
-5.21312,-0.971842,1.42092,2
-0.900423,-0.166558,-0.24536,13
-0.928141,-0.171518,0.0164751,39
-0.907429,-0.167363,0.0483584,2
-0.874603,-0.161309,-0.172873,12
-0.90143,-0.165931,-0.145171,18
-5.98983,-1.1015,0.74779,1
-0.503724,-0.0925416,-0.0628846,17
-5.73163,-1.05195,0.922963,12
-0.828935,-0.152138,-0.0737338,26
-5.76615,-1.05725,1.13951,8
-0.909597,-0.166614,-0.0484631,23
-5.78331,-1.05831,1.35735,13
-0.912732,-0.166859,-0.0161958,60
-5.20524,-0.950648,1.41781,2
-0.883891,-0.160312,-0.240702,11
-0.924799,-0.167564,0.0164053,37
-0.880957,-0.159303,-0.174018,6
-3.82916,-0.691735,0.34043,1
-0.89034,-0.160679,-0.143294,10
-5.98973,-1.07988,0.747303,2
-0.566561,-0.102043,-0.0706842,15
-5.7236,-1.02984,0.921086,20
-0.821618,-0.147832,-0.0730365,13
-5.76788,-1.03677,1.13913,17
-0.921968,-0.165556,-0.0490911,10
-5.79656,-1.03983,1.3596,16
-0.919214,-0.16473,-0.0163005,32
-5.1743,-0.926344,1.40849,10
-0.943408,-0.167707,-0.256748,1
-0.911596,-0.161888,0.0161609,28
-4.21422,-0.746874,-0.831927,1
-3.83155,-0.678364,0.34043,3
-0.94147,-0.166515,-0.151429,5
-5.97978,-1.05655,0.745597,4
-0.551274,-0.0973038,-0.0687343,15
-5.72893,-1.0112,0.921399,28
-0.790735,-0.139428,-0.0702475,15
-5.75406,-1.01356,1.1357,29
-0.908771,-0.159914,-0.0483584,12
-5.7944,-1.01858,1.35825,27
-0.943389,-0.165836,-0.0167194,11
-5.16022,-0.906173,1.40383,10
-0.937738,-0.163324,0.0166147,13
-4.17425,-0.72477,-0.823532,4
-3.82212,-0.662942,0.339384,9
-4.48042,-0.777125,-0.720224,1
-5.98129,-1.03637,0.745353,5
-0.52421,-0.0907353,-0.065322,16
-5.73632,-0.991864,0.922025,38
-0.846189,-0.146162,-0.0751282,12
-5.76706,-0.996145,1.1376,39
-0.907328,-0.15656,-0.0482538,8
-5.79199,-0.998367,1.3569,43
-1.01294,-0.174418,-0.0179411,3
-5.16906,-0.889137,1.40539,13
-4.26561,-0.728368,-1.15951,1
-1.03489,-0.176526,0.018325,9
-4.52408,-0.770877,-1.05952,1
-4.18824,-0.7129,-0.825821,13
-3.83608,-0.652269,0.34043,12
-4.45974,-0.757511,-0.71647,10
-5.97509,-1.01383,0.744134,6
-0.551924,-0.0935493,-0.0687343,15
-5.73178,-0.971518,0.920773,38
-0.874171,-0.148012,-0.0775686,10
-5.76276,-0.974698,1.13608,40
-0.898023,-0.151728,-0.0477304,8
-5.77046,-0.973928,1.35106,40
-1.13971,-0.192358,-0.020175,9
-5.19103,-0.875203,1.41056,10
-4.24335,-0.709334,-1.15278,59
-1.06703,-0.178368,0.0188835,28
-4.41512,-0.737255,-1.03343,1
-4.21201,-0.701827,-0.830019,17
-3.8403,-0.639201,0.340605,15
-4.46807,-0.743691,-0.717409,24
-5.97646,-0.993683,0.743891,5
-0.544398,-0.0904175,-0.0677594,16
-5.72345,-0.949563,0.918896,38
-0.878614,-0.145611,-0.0779172,9
-5.76209,-0.954941,1.13531,40
-0.904432,-0.149728,-0.0480444,8
-5.7775,-0.955423,1.35196,45
-1.13248,-0.187074,-0.0200354,22
-5.17881,-0.854561,1.40642,10
-4.23234,-0.693073,-1.14916,68
-1.05778,-0.173028,0.018709,45
-4.42344,-0.722781,-1.03477,5
-3.81028,-0.62191,0.202331,1
-4.22788,-0.690069,-0.832691,16
-3.83256,-0.62486,0.339733,18
-4.46869,-0.727772,-0.717096,29
-5.97989,-0.972817,0.743891,5
-0.529035,-0.0859694,-0.0658095,16
-5.71893,-0.928313,0.917645,38
-0.906651,-0.147008,-0.0803576,7
-5.76151,-0.934194,1.13455,40
-0.928608,-0.150402,-0.0493005,7
-5.77118,-0.933694,1.34971,43
-1.14694,-0.185353,-0.0202797,24
-5.17413,-0.835247,1.40435,10
-4.23676,-0.67786,-1.14967,57
-1.04258,-0.166807,0.0184297,57
-4.34319,-0.694112,-1.01543,3
-3.80651,-0.607661,0.202017,9
-4.17997,-0.666529,-0.822768,30
-3.82892,-0.609868,0.33921,18
-4.46547,-0.710458,-0.716157,28
-5.98325,-0.951937,0.743891,5
-0.5607,-0.0891071,-0.0697093,15
-5.72018,-0.908034,0.917332,39
-0.907158,-0.143842,-0.0803576,7
-5.7552,-0.911534,1.13264,41
-0.917317,-0.145125,-0.0486724,3
-5.78034,-0.913449,1.35106,45
-1.15943,-0.183222,-0.0204891,22
-5.15984,-0.814469,1.39969,7
-4.24101,-0.663366,-1.15019,56
-1.04911,-0.163911,0.0185345,46
-4.34763,-0.678489,-1.01588,5
-3.79282,-0.591906,0.201179,13
-4.18421,-0.652238,-0.82315,40
-3.82709,-0.595886,0.338862,18
-4.46597,-0.694562,-0.715844,31
-5.97689,-0.928476,0.742672,5
-0.572793,-0.0888778,-0.0711717,15
-5.73698,-0.890183,0.919522,42
-0.860402,-0.133351,-0.0761741,11
-5.75641,-0.891138,1.13226,42
-0.925713,-0.143143,-0.0490911,3
-5.77579,-0.892075,1.34926,50
-1.17192,-0.181004,-0.0206986,21
-5.17793,-0.798809,1.40383,7
-4.26048,-0.651185,-1.15485,49
-1.06744,-0.163151,0.0188486,22
-4.30748,-0.657598,-1.00598,5
-3.79289,-0.578362,0.201075,15
-4.17676,-0.63615,-0.821242,30
-3.82718,-0.582224,0.338687,15
-4.49364,-0.683611,-0.719912,19
-5.97012,-0.907159,0.741453,4
-0.565234,-0.0857864,-0.0701967,15
-5.72247,-0.867487,0.916706,39
-0.880561,-0.13333,-0.0779172,9
-5.75351,-0.871163,1.13112,41
-0.95383,-0.144253,-0.0505565,2
-5.7633,-0.870588,1.34566,45
-1.16662,-0.176018,-0.0205938,21
-5.17495,-0.779868,1.40228,5
-4.26453,-0.637338,-1.15537,28
-1.07789,-0.1609,0.0190231,21
-4.23265,-0.631064,-0.987985,8
-3.77711,-0.562471,0.200133,9
-4.16913,-0.62085,-0.819334,22
-3.80938,-0.566598,0.336944,10
-4.55071,-0.676048,-0.728672,14
-5.97325,-0.886315,0.741453,2
-0.577312,-0.0855589,-0.0716592,15
-5.70984,-0.845191,0.914203,36
-0.810067,-0.119765,-0.071642,14
-5.75845,-0.851362,1.1315,42
-0.974086,-0.143841,-0.0516033,2
-5.76823,-0.850749,1.34611,43
-1.17118,-0.172527,-0.0206636,19
-5.16235,-0.759549,1.39814,5
-4.25537,-0.620034,-1.15226,36
-1.08636,-0.15829,0.0191627,21
-4.20783,-0.612356,-0.981686,12
-3.79486,-0.551581,0.20097,1
-4.17138,-0.605566,-0.819334,19
-3.85087,-0.55835,0.34043,1
-4.5512,-0.659082,-0.728359,22
-5.99203,-0.867735,0.743403,2
-0.593324,-0.0858166,-0.0736091,14
-5.70689,-0.824409,0.913265,37
-0.909078,-0.131162,-0.0803576,7
-5.75765,-0.829689,1.13073,42
-1.00228,-0.144253,-0.0530687,1
-5.76552,-0.828771,1.34476,45
-1.18761,-0.170714,-0.0209429,19
-5.17836,-0.743445,1.40176,2
-1.07506,-0.15262,0.0189533,22
-4.17724,-0.592279,-0.974038,14
-5.75051,-0.815349,0.304386,1
-4.17347,-0.591,-0.819334,19
-9.81644,-1.38835,0.867374,5
-4.5437,-0.64181,-0.726795,17
-5.97551,-0.842994,0.740966,2
-0.617223,-0.0869647,-0.076534,13
-5.71364,-0.805034,0.91389,37
-0.881909,-0.124101,-0.0779172,9
-5.75662,-0.809041,1.12997,45
-0.986957,-0.138532,-0.0522313,2
-5.77996,-0.810264,1.34746,45
-1.19216,-0.167123,-0.0210127,19
-5.18475,-0.725901,1.4028,2
-1.0914,-0.15125,0.0192326,22
-4.1676,-0.576821,-0.971339,17
-4.17745,-0.576697,-0.819715,35
-5.26786,-0.72629,0.465237,2
-4.54384,-0.626469,-0.726482,15
-5.25459,-0.723527,0.65127,2
-0.593909,-0.0816722,-0.0736091,14
-5.7125,-0.784547,0.913265,38
-0.909972,-0.124812,-0.0803576,7
-5.7476,-0.788346,1.12768,42
-0.959708,-0.131464,-0.0507659,2
-5.76331,-0.78845,1.34296,40
-1.2066,-0.164855,-0.021257,21
-5.19108,-0.708321,1.40383,2
-4.30747,-0.582393,-1.16469,8
-1.10381,-0.149045,0.019442,22
-4.16186,-0.561228,-0.969539,17
-5.23734,-0.706256,0.276962,1
-4.1735,-0.562055,-0.818571,56
-4.54796,-0.610868,-0.726795,14
-0.59419,-0.0795986,-0.0736091,14
-5.28042,-0.707373,0.843808,64
-0.910381,-0.121794,-0.0803576,7
-5.34751,-0.71446,1.04869,116
-1.1225,-0.149773,-0.059349,1
-5.33913,-0.711443,1.24353,47
-1.21507,-0.16191,-0.0213967,21
-5.24319,-0.697728,1.41729,2
-4.36694,-0.574918,-1.18022,7
-1.1162,-0.14695,0.0196514,23
-4.16177,-0.547169,-0.969089,21
-1.10697,-0.145342,0.0585116,3
-4.15987,-0.545441,-0.815518,73
-5.25292,-0.687831,0.463494,100
-4.54604,-0.59527,-0.726169,14
-5.25349,-0.686971,0.650539,92
-0.594451,-0.0776277,-0.0736091,14
-5.26719,-0.686894,0.841305,81
-5.30896,-0.691398,1.04067,113
-1.32303,-0.172066,-0.0699208,3
-5.31633,-0.690472,1.23768,87
-1.21365,-0.15741,-0.0213617,21
-5.30498,-0.687114,1.43334,13
-4.39383,-0.562863,-1.18694,5
-1.12069,-0.143366,0.0197212,23
-4.16182,-0.531664,-0.968639,26
-1.08372,-0.138251,0.0572555,13
-4.15785,-0.530421,-0.814754,82
-5.24541,-0.668231,0.462623,100
-4.53448,-0.576858,-0.723979,14
-5.25203,-0.667212,0.650051,96
-0.594731,-0.0754485,-0.0736091,14
-5.26575,-0.667086,0.840679,83
-5.30367,-0.670951,1.03915,113
-1.37319,-0.173474,-0.0725376,13
-5.32076,-0.671225,1.23813,81
-1.22414,-0.154211,-0.0215363,24
-5.32855,-0.670318,1.43903,22
-4.44753,-0.553969,-1.20092,1
-1.11722,-0.138959,0.0196514,22
-4.16558,-0.517374,-0.969089,29
-1.05645,-0.131026,0.0557901,27
-4.16747,-0.516871,-0.816281,82
-5.24969,-0.650161,0.462797,100
-4.51686,-0.558603,-0.72085,10
-5.25433,-0.648875,0.650051,96
-0.591051,-0.072886,-0.0731216,14
-5.27197,-0.649185,0.841305,83
-0.911606,-0.112254,-0.0803576,7
-5.29819,-0.651475,1.03762,113
-1.38568,-0.17014,-0.0731657,19
-5.32694,-0.653123,1.23903,87
-1.24055,-0.151881,-0.0218155,22
-5.34045,-0.652886,1.44162,35
-1.13358,-0.136978,0.0199306,23
-4.15382,-0.501196,-0.96594,33
-1.05093,-0.126804,0.0554761,46
-4.16535,-0.50185,-0.815518,82
-5.25588,-0.632309,0.463146,100
-4.5227,-0.543303,-0.721476,5
-5.24276,-0.628873,0.648345,94
-0.543997,-0.0651567,-0.0672719,16
-5.27802,-0.632169,0.84193,83
-0.714163,-0.0854118,-0.0629264,21
-5.28873,-0.631579,1.03533,113
-1.37635,-0.16412,-0.0726423,18
-5.31951,-0.633373,1.23678,82
-1.25693,-0.149657,-0.0220947,24
-5.34258,-0.635173,1.44162,46
-4.4628,-0.524259,-1.20403,1
-1.14594,-0.134618,0.0201401,23
-4.15159,-0.486965,-0.96504,35
-1.03748,-0.121508,0.0547434,60
-4.16513,-0.487079,-0.815136,86
-5.25212,-0.613266,0.462623,100
-4.52448,-0.528302,-0.721476,3
-5.24679,-0.611715,0.648589,100
-0.54421,-0.0633524,-0.0672719,32
-5.27627,-0.613285,0.841305,81
-5.28885,-0.613812,1.03495,109
-1.37093,-0.158865,-0.0723283,12
-5.30803,-0.614161,1.23363,86
-1.27731,-0.147564,-0.0224438,22
-5.35436,-0.617628,1.44421,74
-4.47219,-0.510333,-1.2061,3
-1.15435,-0.131522,0.0202797,23
-4.15907,-0.473131,-0.96639,35
-1.04186,-0.118337,0.0549528,33
-4.15697,-0.472158,-0.813228,82
-5.25016,-0.595396,0.462274,100
-4.50667,-0.510283,-0.718347,3
-5.24889,-0.593397,0.648589,99
-0.548373,-0.0618976,-0.0677594,32
-5.2666,-0.593536,0.839427,83
-5.30461,-0.596883,1.03762,111
-5.16438,-0.580191,-0.272356,42
-5.31595,-0.59628,1.23498,84
-1.25397,-0.140434,-0.0220249,24
-5.34881,-0.598075,1.44214,77
-4.4509,-0.49217,-1.19989,1
-1.16276,-0.12837,0.0204193,22
-4.15876,-0.458397,-0.96594,33
-1.06609,-0.117321,0.0562088,23
-4.15469,-0.457214,-0.812465,82
-5.24627,-0.576413,0.461751,101
-4.50253,-0.493904,-0.717409,12
-5.25291,-0.575287,0.648832,94
-0.532799,-0.0582569,-0.0658095,16
-5.26864,-0.57515,0.839427,83
-5.29495,-0.577087,1.03533,111
-5.17034,-0.562593,-0.272566,87
-5.32188,-0.578141,1.23588,82
-1.28228,-0.139074,-0.0225136,27
-5.32397,-0.576489,1.43489,71
-4.46796,-0.478276,-1.20403,1
-1.15922,-0.123885,0.0203495,23
-4.15646,-0.443463,-0.96504,31
-1.07841,-0.114868,0.0568369,22
-4.16407,-0.44354,-0.813991,81
-5.2324,-0.556412,0.460357,100
-4.51601,-0.479434,-0.719286,17
-5.25094,-0.556529,0.648345,92
-0.558663,-0.0591123,-0.0689781,31
-5.26668,-0.556339,0.838802,83
-5.28327,-0.557159,1.03266,115
-5.1544,-0.54266,-0.271624,100
-5.31805,-0.55895,1.23453,87
-1.29271,-0.135641,-0.0226881,25
-5.34517,-0.559915,1.44007,85
-4.56184,-0.472226,-1.22887,1
-1.1676,-0.12066,0.0204891,22
-4.1541,-0.428552,-0.96414,28
-1.07881,-0.111103,0.0568369,21
-4.16364,-0.428802,-0.81361,76
-5.24026,-0.538756,0.46088,100
-4.51373,-0.463264,-0.71866,21
-5.23705,-0.536579,0.646395,94
-0.568739,-0.0581716,-0.0701967,31
-5.27252,-0.538353,0.839427,79
-5.28713,-0.538913,1.03304,113
-5.15229,-0.524259,-0.271414,100
-5.31997,-0.540383,1.23453,87
-1.31307,-0.133145,-0.0230372,22
-5.33556,-0.540084,1.43696,85
-4.60191,-0.460143,-1.23923,1
-1.18792,-0.11857,0.0208382,23
-4.1517,-0.413663,-0.96324,19
-1.07321,-0.106931,0.0565228,20
-4.15925,-0.413682,-0.812465,74
-5.25004,-0.521247,0.461577,100
-4.4937,-0.445363,-0.715218,22
-5.23494,-0.517904,0.645908,90
-0.568929,-0.0562854,-0.0701967,100
-5.27035,-0.520477,0.838802,83
-5.28898,-0.520454,1.03304,113
-5.15011,-0.50588,-0.271205,100
-5.30428,-0.521023,1.23048,89
-1.31748,-0.12918,-0.023107,27
-5.34116,-0.522764,1.438,88
-1.19626,-0.115398,0.0209778,22
-4.14723,-0.399333,-0.961891,15
-1.08548,-0.10452,0.0571509,20
-4.15473,-0.399324,-0.81132,68
-5.24578,-0.503264,0.461054,100
-4.49908,-0.430835,-0.715844,21
-5.24058,-0.500919,0.646395,90
-0.5454,-0.0521318,-0.0672719,16
-5.25631,-0.501496,0.836299,83
-5.2985,-0.503656,1.03457,113
-5.15773,-0.489365,-0.271519,100
-5.30792,-0.503615,1.23093,86
-1.3179,-0.124811,-0.023107,25
-5.33517,-0.504323,1.43593,93
-1.2046,-0.112172,0.0211174,21
-4.16211,-0.38684,-0.96504,14
-1.09578,-0.101653,0.0576742,19
-4.14431,-0.384456,-0.80903,61
-5.22362,-0.483661,0.458962,100
-4.48868,-0.414823,-0.713967,24
-5.24616,-0.483902,0.646883,94
-0.565346,-0.0520475,-0.0697093,31
-5.26197,-0.483507,0.836924,85
-5.29232,-0.485365,1.03304,113
-5.15137,-0.471531,-0.2711,100
-5.30576,-0.48473,1.23003,87
-1.32629,-0.120936,-0.0232466,25
-5.32536,-0.484645,1.43282,85
-1.20101,-0.10761,0.0210476,22
-4.14985,-0.371094,-0.961891,10
-1.11006,-0.0990701,0.0584069,17
-4.16524,-0.371005,-0.812846,50
-5.23528,-0.465394,0.459834,100
-4.45672,-0.3954,-0.708648,17
-5.23991,-0.464885,0.645908,92
-0.563547,-0.0498987,-0.0694655,31
-5.26362,-0.465136,0.836924,79
-5.27842,-0.464586,1.02999,107
-5.1451,-0.451948,-0.270682,87
-5.31527,-0.465961,1.23183,87
-1.35061,-0.118401,-0.0236655,22
-5.32317,-0.465716,1.43179,88
-1.21733,-0.104576,0.0213268,21
-4.15118,-0.355883,-0.961891,7
-1.12234,-0.0962185,0.059035,13
-4.16651,-0.356464,-0.812846,40
-5.23092,-0.446608,0.459311,100
-4.46595,-0.380513,-0.7099,24
-5.22576,-0.444331,0.643958,88
-0.565704,-0.0480007,-0.0697093,15
-5.26521,-0.44676,0.836924,83
-5.28001,-0.446159,1.02999,107
-5.13869,-0.433314,-0.270263,100
-5.31492,-0.44724,1.23138,89
-1.37095,-0.115362,-0.0240145,22
-5.33246,-0.44778,1.43386,93
-1.22564,-0.101197,0.0214665,21
-4.15039,-0.341955,-0.961441,3
-1.12466,-0.0924636,0.0591396,11
-4.15795,-0.341115,-0.810938,34
-5.24039,-0.428998,0.460008,100
-4.45734,-0.364895,-0.708335,15
-5.23116,-0.427322,0.644445,92
-0.567838,-0.0462857,-0.069953,31
-5.26083,-0.427899,0.835986,83
-5.28146,-0.428647,1.02999,111
-5.1381,-0.41611,-0.270158,100
-5.29889,-0.428202,1.22733,87
-1.37134,-0.110576,-0.0240145,20
-5.33592,-0.429318,1.43438,99
-1.23795,-0.0978637,0.0216759,22
-4.15351,-0.327618,-0.961891,3
-1.13294,-0.089164,0.0595583,12
-4.1434,-0.326092,-0.807885,17
-5.23781,-0.411306,0.459659,100
-4.45268,-0.348871,-0.707397,15
-5.23658,-0.409369,0.644933,92
-0.571954,-0.0446122,-0.0704405,46
-5.25639,-0.409071,0.835047,87
-5.29075,-0.410817,1.03151,113
-5.14948,-0.398945,-0.270682,100
-5.29841,-0.409551,1.22688,89
-1.37371,-0.105943,-0.0240494,19
-5.33161,-0.410245,1.43282,93
-1.24227,-0.0938431,0.0217457,21
-4.18766,-0.315606,-0.969539,1
-1.14917,-0.0864071,0.0603957,17
-4.15234,-0.312217,-0.809412,14
-5.21338,-0.391082,0.457393,100
-4.44205,-0.33244,-0.705519,15
-5.24391,-0.391532,0.645664,96
-4.563,-0.339891,-0.561818,5
-5.24793,-0.389989,0.833483,83
-5.28824,-0.392056,1.03075,111
-5.14885,-0.38082,-0.270577,92
-5.30758,-0.391627,1.22868,89
-1.38205,-0.101734,-0.024189,13
-5.32144,-0.390783,1.42972,93
-4.68606,-0.338368,-1.2589,3
-1.25057,-0.0900808,0.0218853,21
-4.1693,-0.299591,-0.96504,1
-1.15943,-0.0831091,0.0609191,22
-4.14753,-0.297299,-0.808267,9
-5.2326,-0.374159,0.458962,101
-4.43333,-0.316231,-0.703955,14
-5.23535,-0.37252,0.644445,88
-4.58,-0.325084,-0.563768,5
-5.25714,-0.372225,0.834734,83
-0.618086,-0.0437628,-0.0542109,28
-5.27782,-0.372765,1.02846,111
-5.1382,-0.362001,-0.269949,74
-5.31086,-0.373234,1.22913,86
-5.17451,-0.362746,-0.0905431,30
-5.3247,-0.37234,1.43023,99
-4.6718,-0.320949,-1.25475,1
-1.26684,-0.0868086,0.0221646,21
-4.16643,-0.28477,-0.96414,1
-1.16569,-0.079469,0.0612331,23
-4.16813,-0.284155,-0.812083,4
-5.22394,-0.355216,0.458091,100
-4.43835,-0.301021,-0.704581,15
-5.22473,-0.353439,0.642983,90
-4.58903,-0.309629,-0.564743,5
-5.25447,-0.353608,0.834109,83
-0.618235,-0.0416051,-0.0542109,28
-5.27126,-0.353813,1.02693,111
-5.14541,-0.344463,-0.270263,94
-5.30824,-0.354435,1.22823,87
-5.17375,-0.344547,-0.0905082,100
-5.32212,-0.353494,1.4292,99
-1.27511,-0.0829049,0.0223042,21
-4.14406,-0.268711,-0.958741,1
-1.15998,-0.0750125,0.0609191,24
-4.15538,-0.268716,-0.809412,3
-5.23509,-0.337621,0.458962,100
-4.43543,-0.285272,-0.703955,10
-5.2299,-0.335452,0.64347,94
-4.58612,-0.293356,-0.564255,9
-5.25567,-0.335264,0.834109,83
-0.618383,-0.0393387,-0.0542109,28
-5.2803,-0.335909,1.02846,113
-5.13262,-0.325616,-0.26953,100
-5.29583,-0.335042,1.22508,89
-5.15696,-0.325352,-0.090194,92
-5.33296,-0.335522,1.43179,93
-1.29535,-0.0796811,0.0226532,23
-4.19166,-0.257108,-0.969539,1
-1.17818,-0.0720605,0.0618611,23
-4.1485,-0.253007,-0.807885,3
-5.22634,-0.317827,0.458091,100
-4.43842,-0.269133,-0.704268,14
-5.23104,-0.317195,0.64347,88
-4.61683,-0.279143,-0.567911,1
-5.24498,-0.316202,0.832231,83
-5.29129,-0.317142,1.03037,115
-5.13777,-0.307039,-0.26974,100
-5.28924,-0.315166,1.22328,92
-5.16206,-0.307588,-0.0902639,100
-5.32831,-0.316561,1.43023,99
-4.61709,-0.267838,-1.23923,1
-1.29963,-0.0751638,0.022723,21
-4.19257,-0.241742,-0.969539,1
-1.1844,-0.0682924,0.0621751,24
-4.17876,-0.240215,-0.81361,1
-5.21151,-0.298669,0.456696,100
-4.43539,-0.253413,-0.703642,8
-5.2282,-0.297794,0.642983,92
-5.08947,-0.289892,-0.625921,17
-5.24605,-0.297893,0.832231,81
-0.618643,-0.0350208,-0.0542109,28
-5.28061,-0.298006,1.02808,109
-5.15078,-0.289777,-0.270368,100
-5.29804,-0.298062,1.22508,84
-5.14912,-0.288783,-0.0900195,100
-5.32167,-0.297527,1.42816,99
-4.50993,-0.246618,-1.21024,1
-1.30387,-0.0710716,0.0227928,21
-4.19335,-0.227838,-0.969539,1
-1.19858,-0.0651228,0.0629078,23
-4.18345,-0.226568,-0.814373,1
-5.23038,-0.282352,0.458265,100
-4.42634,-0.238173,-0.702078,5
-5.22916,-0.280455,0.642983,92
-5.0904,-0.273013,-0.625921,17
-5.25096,-0.280705,0.832857,79
-0.618755,-0.0329691,-0.0542109,28
-5.27764,-0.280285,1.02732,109
-5.13575,-0.27185,-0.26953,100
-5.29706,-0.280388,1.22463,87
-5.15804,-0.272127,-0.0901591,100
-5.3207,-0.279778,1.42765,93
-4.47986,-0.230076,-1.20196,3
-1.32007,-0.0675651,0.0230721,21
-4.19408,-0.213931,-0.969539,1
-1.20478,-0.061453,0.0632218,22
-4.1881,-0.212893,-0.815136,1
-5.21338,-0.264099,0.456696,100
-4.43105,-0.223692,-0.702704,3
-5.22213,-0.262714,0.642008,85
-5.07938,-0.255533,-0.624459,17
-5.25186,-0.263292,0.832857,85
-0.618861,-0.030917,-0.0542109,28
-5.27266,-0.262489,1.02617,111
-5.12665,-0.254323,-0.269007,100
-5.2999,-0.262918,1.22508,89
-5.16291,-0.255218,-0.0902289,100
-5.3216,-0.262132,1.42765,93
-4.44586,-0.213551,-1.19264,1
-1.33826,-0.0640475,0.0233862,20
-4.19477,-0.200022,-0.969539,1
-1.20298,-0.0573626,0.0631172,15
-4.17702,-0.198444,-0.812846,1
-5.22218,-0.247186,0.457393,100
-4.40809,-0.20788,-0.698949,3
-5.22694,-0.245582,0.642495,90
-5.07822,-0.238594,-0.624215,14
-5.24875,-0.24569,0.832231,83
-0.61896,-0.0288646,-0.0542109,28
-5.26762,-0.244729,1.02503,109
-5.12547,-0.23723,-0.268902,100
-5.28517,-0.244621,1.22148,89
-5.15574,-0.237727,-0.0900893,100
-5.33015,-0.244838,1.42972,93
-1.36047,-0.0601127,0.0237702,20
-5.19986,-0.227941,0.272775,38
-5.21509,-0.227695,0.456696,100
-4.42461,-0.19241,-0.701452,1
-5.22384,-0.226252,0.642008,88
-5.07712,-0.219008,-0.623971,6
-5.24571,-0.225365,0.831606,81
-0.591194,-0.0253987,-0.0517705,30
-5.28613,-0.226176,1.02846,111
-5.13429,-0.218781,-0.269321,100
-5.28802,-0.224409,1.22193,95
-5.14063,-0.217254,-0.0898101,100
-5.32526,-0.224126,1.42816,99
-1.36666,-0.0556076,0.0238749,20
-5.18865,-0.209304,0.272147,74
-5.20789,-0.209171,0.455999,100
-5.22459,-0.208014,0.642008,92
-0.575225,-0.0228018,-0.0706842,15
-5.23857,-0.206741,0.830354,81
-0.619151,-0.0244348,-0.0542109,28
-5.27316,-0.207183,1.02579,106
-5.13502,-0.200859,-0.269321,100
-5.29461,-0.206176,1.22328,89
-5.14535,-0.199463,-0.0898799,100
-5.31057,-0.204941,1.42402,100
-1.36285,-0.0506881,0.0238051,18
-5.18736,-0.191119,0.272042,100
-5.21257,-0.191137,0.456347,100
-5.22529,-0.189777,0.642008,90
-0.575301,-0.0207938,-0.0706842,15
-5.24716,-0.188736,0.831606,81
-0.619233,-0.0222733,-0.0542109,28
-5.25423,-0.188073,1.02197,104
-5.13369,-0.182862,-0.269216,100
-5.2953,-0.187692,1.22328,92
-5.15401,-0.181784,-0.0900195,100
-5.30739,-0.186267,1.42299,97
-1.37301,-0.0462672,0.0239796,12
-5.18001,-0.172744,0.271624,97
-1.60505,-0.0535255,-0.312164,1
-5.22516,-0.173337,0.457393,100
-5.21798,-0.171275,0.641033,88
-0.579338,-0.018915,-0.0711717,15
-5.25173,-0.170548,0.832231,83
-5.26859,-0.170175,1.02464,111
-5.11634,-0.164363,-0.268274,100
-5.28813,-0.168959,1.22148,92
-5.15062,-0.163665,-0.0899497,100
-5.32153,-0.168165,1.42661,100
-5.16086,-0.155877,0.0901242,28
-1.55439,-0.0466764,-0.359022,4
-5.1706,-0.154363,0.2711,100
-1.55421,-0.0463993,-0.302241,5
-5.21776,-0.15486,0.456696,100
-1.55789,-0.0459651,-0.246854,3
-5.22252,-0.153176,0.64152,88
-0.591306,-0.0172397,-0.0726341,14
-5.24835,-0.152101,0.831606,85
-5.26719,-0.151727,1.02426,109
-5.11688,-0.146503,-0.268274,100
-5.27895,-0.150221,1.21923,95
-5.14916,-0.145628,-0.0899148,99
-5.32015,-0.149535,1.42609,99
-5.15738,-0.137753,0.0900544,60
-1.55455,-0.0412502,-0.359022,7
-5.16511,-0.136157,0.270786,97
-1.53669,-0.0405085,-0.298807,11
-5.20831,-0.136384,0.455824,100
-1.57384,-0.0409377,-0.249357,11
-5.22302,-0.134947,0.64152,88
-0.559612,-0.0143608,-0.0687343,15
-5.237,-0.133477,0.829729,85
-5.27554,-0.133538,1.02579,109
-5.12934,-0.128942,-0.268902,100
-5.29113,-0.132085,1.22193,95
-5.13964,-0.127406,-0.0897403,100
-5.3245,-0.131058,1.42713,100
-5.16782,-0.119981,0.0902289,80
-1.57027,-0.0361831,-0.362621,14
-5.17554,-0.118353,0.27131,100
-1.55253,-0.0355028,-0.30186,14
-5.20477,-0.118113,0.455476,100
-1.56213,-0.0351772,-0.247479,17
-5.22743,-0.116801,0.642008,82
-0.583474,-0.0129352,-0.0716592,15
-5.23348,-0.11511,0.829103,81
-5.27205,-0.115037,1.02503,109
-5.13375,-0.111123,-0.269112,100
-5.28182,-0.113407,1.21968,92
-5.14205,-0.109507,-0.0897752,96
-5.30561,-0.112064,1.42195,100
-4.17199,-0.0822922,-1.1181,1
-5.15221,-0.101627,0.0899497,88
-1.56454,-0.0305873,-0.361271,4
-5.18391,-0.100441,0.271728,100
-1.54283,-0.0296242,-0.299952,6
-5.20916,-0.0991124,0.455824,100
-1.5504,-0.0292277,-0.245602,6
-5.22384,-0.0984785,0.64152,85
-0.591454,-0.0110468,-0.0726341,14
-5.2378,-0.0969129,0.829729,81
-5.25477,-0.0953933,1.02159,106
-5.12214,-0.0920902,-0.268483,100
-5.29389,-0.0942538,1.22238,92
-5.1444,-0.0915923,-0.0898101,100
-5.30983,-0.093612,1.42299,100
-4.13748,-0.0671642,-1.10878,8
-5.15655,-0.0828055,0.0900195,88
-4.12107,-0.0654589,-0.951543,19
-5.18025,-0.0813787,0.271519,100
-4.15177,-0.0652219,-0.807122,32
-5.20549,-0.0808652,0.455476,100
-1.53666,-0.0236036,-0.243412,2
-5.21225,-0.0791518,0.640058,92
-0.551794,-0.00828293,-0.0677594,16
-5.24207,-0.0777745,0.830354,77
-5.25114,-0.0769924,1.02083,104
-5.11844,-0.074152,-0.268274,100
-5.28639,-0.0756637,1.22058,92
-5.1527,-0.0728495,-0.0899497,100
-5.31014,-0.0741485,1.42299,100
-4.13769,-0.0527212,-1.10878,8
-5.15881,-0.0648315,0.0900544,86
-4.13296,-0.0512181,-0.954242,64
-5.16453,-0.0630992,0.270682,100
-4.14216,-0.0506081,-0.805214,55
-5.22566,-0.0629352,0.457219,100
-4.39293,-0.0521394,-0.695821,3
-5.2125,-0.0609558,0.640058,94
-0.591518,-0.0068142,-0.0726341,14
-5.23441,-0.059386,0.829103,81
-5.26119,-0.0587703,1.02274,111
-5.11267,-0.0562201,-0.26796,100
-5.27298,-0.0570625,1.21744,87
-5.14892,-0.0548201,-0.0898799,100
-5.3181,-0.055693,1.42506,100
-4.11274,-0.0380452,-1.10205,9
-5.159,-0.0468233,0.0900544,86
-4.12532,-0.0367216,-0.952443,50
-5.16271,-0.0459559,0.270577,97
-4.14624,-0.0361841,-0.805977,78
-5.20592,-0.0445233,0.455476,100
-4.40691,-0.0369207,-0.698011,7
-5.21665,-0.0427941,0.640545,88
-0.563747,-0.00462462,-0.0692218,15
-5.23458,-0.0420276,0.829103,75
-5.26529,-0.040435,1.0235,107
-5.12482,-0.038463,-0.268588,100
-5.27509,-0.0395908,1.21789,92
-5.13708,-0.0376572,-0.0896705,100
-5.32018,-0.0380709,1.42558,100
-4.11284,-0.0244075,-1.10205,9
-5.15713,-0.0297035,0.0900195,88
-4.13127,-0.0230738,-0.953792,56
-5.16883,-0.0288687,0.270891,100
-4.13455,-0.0223706,-0.803688,76
-5.21003,-0.0272803,0.455824,101
-4.41491,-0.0223464,-0.699262,3
-5.22073,-0.025514,0.641033,88
-0.555819,-0.00271632,-0.0682468,16
-5.23469,-0.0246686,0.829103,81
-5.26147,-0.0229571,1.02274,107
-5.12492,-0.0214681,-0.268588,100
-5.27909,-0.0221139,1.21878,89
-5.13318,-0.0206068,-0.0896007,100
-5.30483,-0.0203687,1.42143,99
-4.13028,-0.010814,-1.10671,9
-5.1452,-0.0125721,0.0898101,88
-4.12352,-0.00935605,-0.951993,56
-5.17888,-0.010848,0.271414,97
-4.14049,-0.00867293,-0.804832,81
-5.19813,-0.0099799,0.454779,100
-4.37348,-0.00763337,-0.692692,14
-5.21285,-0.00818986,0.640058,90
-0.599497,-0.000837097,-0.0736091,14
-5.23474,-0.00639585,0.829103,79
-5.09852,-0.00622942,-0.446063,2
-5.24778,-0.00549467,1.02006,106
-5.11498,-0.00446417,-0.268065,100
-5.28303,-0.00368883,1.21968,89
-5.14522,-0.00269342,-0.0898101,100
-5.29907,-0.00185041,1.41988,97
-4.13803,0.00361125,-1.10878,9
-5.14721,0.00539028,0.089845,84
-4.11574,0.0050274,-0.950193,56
-5.17489,0.00722554,0.271205,100
-4.13854,0.0057785,-0.804451,79
-5.2081,0.00818083,0.45565,100
-4.38335,0.00764928,-0.694256,17
-5.21284,0.0100078,0.640058,92
-0.599497,0.00125556,-0.0736091,14
-5.23869,0.0118847,0.829729,81
-5.08457,0.0115351,-0.444843,9
-5.24776,0.0128224,1.02006,106
-5.11097,0.0133802,-0.267855,100
-5.27912,0.0147404,1.21878,92
-5.14319,0.0152597,-0.0897752,99
-5.30677,0.0166712,1.42195,100
-4.15151,0.0181148,-1.1124,8
-5.15516,0.0233926,0.0899846,86
-4.11959,0.0194124,-0.951093,57
-5.16485,0.0252406,0.270682,100
-4.14045,0.0202344,-0.804832,82
-5.21003,0.0263694,0.455824,100
-4.3912,0.0229925,-0.695508,12
-5.20881,0.0281826,0.63957,88
-0.599489,0.00334806,-0.0736091,14
-5.23071,0.030127,0.828477,79
-5.08649,0.0292963,-0.445017,7
-5.25358,0.0311755,1.02121,107
-5.11089,0.0312208,-0.267855,100
-5.27319,0.0331326,1.21744,87
-5.13711,0.0331741,-0.0896705,100
-5.30861,0.0352082,1.42247,99
-4.15722,0.0326508,-1.11396,9
-5.16305,0.0414517,0.0901242,86
-4.12534,0.0338414,-0.952443,63
-5.16273,0.0432513,0.270577,97
-4.12858,0.0345876,-0.802543,82
-5.19995,0.0444706,0.454953,100
-4.37529,0.0381828,-0.693005,28
-5.21662,0.0464342,0.640545,88
-0.611383,0.00554876,-0.0750715,14
-5.22662,0.048349,0.827851,77
-5.09631,0.0471435,-0.445889,7
-5.26521,0.0496249,1.0235,111
-5.11874,0.0491378,-0.268274,100
-5.27109,0.0515203,1.21699,89
-5.12897,0.0510264,-0.0895308,100
-5.30266,0.0536799,1.42092,100
-4.13583,0.046921,-1.10826,6
-5.15287,0.0593588,0.0899497,88
-4.1291,0.0482861,-0.953343,63
-5.16655,0.0613199,0.270786,97
-4.12843,0.0489989,-0.802543,82
-5.19976,0.0626229,0.454953,100
-4.37908,0.0535036,-0.69363,28
-5.21245,0.0645942,0.640058,90
-0.583571,0.00733378,-0.0716592,15
-5.22642,0.0665931,0.827851,77
-5.06624,0.0645521,-0.443274,4
-5.25127,0.0678251,1.02083,106
-5.11454,0.0669531,-0.268065,100
