# .PCD v.7 - Point Cloud Data file format
VERSION .7
FIELDS x y z intensity normals observationDirections
SIZE 4 4 4 4 4 4
TYPE F F F F F F
COUNT 1 1 1 1 3 3
WIDTH 546
HEIGHT 1
POINTS 546
DATA ascii
2.67903 0.865303 0.54724 100 -0.981103 0.190305 -0.0349464 -2.67903 -0.865303 -0.54724
2.6688 0.86097 0.647409 86 -0.214545 -0.070929 0.974135 -2.6688 -0.86097 -0.647409
2.77299 0.894049 -0.0508563 87 -0.0169114 -0.00523136 -0.999843 -2.77299 -0.894049 0.0508563
2.657 0.856139 0.747987 100 -0.99462 0.0874364 -0.0555572 -2.657 -0.856139 -0.747987
2.26233 0.724612 -0.461758 8 -0.198973 -0.0587292 -0.978244 -2.26233 -0.724612 0.461758
2.74005 0.877098 0.251706 100 -0.946927 0.313737 0.0699933 -2.74005 -0.877098 -0.251706
2.57758 0.824595 -0.428631 6 -0.150632 -0.0479982 -0.987424 -2.57758 -0.824595 0.428631
2.69818 0.862656 0.347815 92 -0.789753 -0.326302 -0.519439 -2.69818 -0.862656 -0.347815
2.78531 0.889978 -0.359027 82 0.113121 0.0382471 0.992845 -2.78531 -0.889978 0.359027
2.70597 0.864107 0.449906 92 -0.95944 -0.271141 0.0771876 -2.70597 -0.864107 -0.449906
2.75079 0.871548 0.0503676 85 -0.016743 -0.00540016 0.999845 -2.75079 -0.871548 -0.0503676
2.26297 0.716118 -0.461376 7 -0.198973 -0.0587292 -0.978244 -2.26297 -0.716118 0.461376
2.7279 0.862723 0.250311 100 -0.946927 0.313737 0.0699933 -2.7279 -0.862723 -0.250311
2.57479 0.813806 -0.427692 7 -0.150632 -0.0479982 -0.987424 -2.57479 -0.813806 0.427692
2.70117 0.853232 0.347815 87 -0.789753 -0.326302 -0.519439 -2.70117 -0.853232 -0.347815
2.7884 0.880251 -0.359027 78 0.113121 0.0382471 0.992845 -2.7884 -0.880251 0.359027
2.6939 0.849901 0.447403 90 0.148182 0.0457217 -0.987903 -2.6939 -0.849901 -0.447403
2.7874 0.8794 -0.255715 97 -0.988925 0.109154 -0.100563 -2.7874 -0.8794 0.255715
2.6925 0.848941 0.548767 100 -0.183885 -0.0555561 0.981376 -2.6925 -0.848941 -0.548767
2.66173 0.838219 0.64426 88 -0.99462 0.0874364 -0.0555572 -2.66173 -0.838219 -0.64426
2.74809 0.860147 0.0502629 77 -0.0166756 -0.00518889 0.999848 -2.74809 -0.860147 -0.0502629
2.71568 0.848441 0.248917 100 -0.992255 0.104643 -0.066928 -2.71568 -0.848441 -0.248917
2.58139 0.805991 -0.428318 7 -0.150632 -0.0479982 -0.987424 -2.58139 -0.805991 0.428318
2.78767 0.869329 -0.35854 80 0.113121 0.0382471 0.992845 -2.78767 -0.869329 0.35854
2.77904 0.866107 -0.254669 100 -0.988925 0.109154 -0.100563 -2.77904 -0.866107 0.254669
2.68794 0.837202 0.54724 100 -0.183885 -0.0555561 0.981376 -2.68794 -0.837202 -0.54724
2.6665 0.829501 0.64471 94 -0.974138 0.224446 -0.0260626 -2.6665 -0.829501 -0.64471
2.75547 0.856651 -0.0503676 87 -0.0171053 -0.00523765 -0.99984 -2.75547 -0.856651 0.0503676
2.64368 0.821391 0.741775 97 0.233508 0.0814899 -0.968934 -2.64368 -0.821391 -0.741775
2.73389 0.845233 0.0499488 88 -0.0166756 -0.00518889 0.999848 -2.73389 -0.845233 -0.0499488
2.72053 0.839544 0.249091 100 -0.94635 0.00675144 -0.323073 -2.72053 -0.839544 -0.249091
2.70327 0.833184 0.347328 90 -0.123499 -0.0339506 0.991764 -2.70327 -0.833184 -0.347328
2.78205 0.856403 -0.254669 95 -0.993216 0.113165 0.0267338 -2.78205 -0.856403 0.254669
2.67959 0.82435 0.544951 100 -0.183885 -0.0555561 0.981376 -2.67959 -0.82435 -0.544951
2.77006 0.851652 -0.151879 84 -0.997065 -0.0612759 -0.0458921 -2.77006 -0.851652 0.151879
2.73667 0.836164 0.0499488 84 -0.0166756 -0.00518889 0.999848 -2.73667 -0.836164 -0.0499488
2.73363 0.83419 0.149786 93 -0.998788 0.0470403 0.0145202 -2.73363 -0.83419 -0.149786
2.26659 0.691237 -0.460613 8 -0.198973 -0.0587292 -0.978244 -2.26659 -0.691237 0.460613
2.7406 0.83527 0.25066 100 -0.0842985 -0.0244871 0.99614 -2.7406 -0.83527 -0.25066
2.68703 0.818431 0.34489 90 -0.985626 -0.0840812 -0.146535 -2.68703 -0.818431 -0.34489
2.78592 0.848021 -0.357565 86 -0.11737 -0.0347501 -0.99248 -2.78592 -0.848021 0.357565
2.70251 0.822116 0.447403 96 0.148182 0.0457217 -0.987903 -2.70251 -0.822116 -0.447403
2.78121 0.845527 -0.25432 95 -0.998521 -0.0332502 -0.0430148 -2.78121 -0.845527 0.25432
2.6748 0.813176 0.543424 100 -0.988052 0.0461564 -0.147047 -2.6748 -0.813176 -0.543424
2.7708 0.840779 -0.0505422 85 -0.0169114 -0.00523136 -0.999843 -2.7708 -0.840779 0.0505422
2.65845 0.806179 0.744364 100 -0.974138 0.224446 -0.0260626 -2.65845 -0.806179 -0.744364
2.26899 0.68332 -0.460613 6 -0.198973 -0.0587292 -0.978244 -2.26899 -0.68332 0.460613
2.58199 0.777089 -0.427066 7 0.118454 0.0407743 0.992122 -2.58199 -0.777089 0.427066
2.69367 0.810191 0.345378 87 -0.985626 -0.0840812 -0.146535 -2.69367 -0.810191 -0.345378
2.75872 0.82713 -0.150937 88 -0.997065 -0.0612759 -0.0458921 -2.75872 -0.82713 0.150937
2.76798 0.829379 -0.0504375 85 -0.0171053 -0.00523765 -0.99984 -2.76798 -0.829379 0.0504375
2.66495 0.798004 0.745399 100 -0.974138 0.224446 -0.0260626 -2.66495 -0.798004 -0.745399
2.77669 0.82355 -0.355615 82 -0.11737 -0.0347501 -0.99248 -2.77669 -0.82355 0.355615
2.69317 0.798265 0.4449 99 0.148182 0.0457217 -0.987903 -2.69317 -0.798265 -0.4449
2.78719 0.825603 -0.25432 100 -0.993216 0.113165 0.0267338 -2.78719 -0.825603 0.25432
2.68822 0.795777 0.544951 100 -0.183885 -0.0555561 0.981376 -2.68822 -0.795777 -0.544951
2.66101 0.787216 0.640661 100 0.211808 0.0608279 -0.975417 -2.66101 -0.787216 -0.640661
2.65304 0.783853 0.741258 100 0.218804 0.0787675 -0.972584 -2.65304 -0.783853 -0.741258
2.74172 0.805373 0.049879 85 -0.0174961 -0.00461131 0.999836 -2.74172 -0.805373 -0.049879
2.72319 0.799415 0.148739 93 -0.99958 0.0124089 0.0262073 -2.72319 -0.799415 -0.148739
2.2644 0.664303 -0.458705 7 -0.20571 -0.0516807 -0.977247 -2.2644 -0.664303 0.458705
2.59709 0.76092 -0.428631 6 -0.154282 -0.0426504 -0.987106 -2.59709 -0.76092 0.428631
2.69573 0.789308 0.34489 92 -0.123499 -0.0339506 0.991764 -2.69573 -0.789308 -0.34489
2.77969 0.813366 -0.355615 82 -0.11737 -0.0347501 -0.99248 -2.77969 -0.813366 0.355615
2.68836 0.78664 0.443648 94 -0.988052 0.0461564 -0.147047 -2.68836 -0.78664 -0.443648
2.77093 0.810278 -0.252577 100 -0.997065 -0.0612759 -0.0458921 -2.77093 -0.810278 0.252577
2.662 0.776912 0.640211 92 0.211808 0.0608279 -0.975417 -2.662 -0.776912 -0.640211
2.7508 0.802829 -0.0500186 90 -0.997989 -0.0617455 -0.0143281 -2.7508 -0.802829 0.0500186
2.74438 0.796277 0.049879 83 -0.0174961 -0.00461131 0.999836 -2.74438 -0.796277 -0.049879
2.7298 0.791015 0.148948 96 -0.998788 0.0470403 0.0145202 -2.7298 -0.791015 -0.148948
2.27425 0.658579 -0.460231 7 -0.198973 -0.0587292 -0.978244 -2.27425 -0.658579 0.460231
2.58442 0.747911 -0.426128 7 -0.159369 -0.044081 -0.986234 -2.58442 -0.747911 0.426128
2.69109 0.777253 0.443648 92 -0.988052 0.0461564 -0.147047 -2.69109 -0.777253 -0.443648
2.77374 0.8006 -0.252577 97 -0.998521 -0.0332502 -0.0430148 -2.77374 -0.8006 0.252577
2.67282 0.77147 0.540753 97 -0.988052 0.0461564 -0.147047 -2.67282 -0.77147 -0.540753
2.77107 0.799304 -0.151146 88 -0.997065 -0.0612759 -0.0458921 -2.77107 -0.799304 0.151146
2.66456 0.76808 0.640211 92 0.211808 0.0608279 -0.975417 -2.66456 -0.76808 -0.640211
2.63988 0.759967 0.736081 100 -0.891075 -0.453606 -0.0150642 -2.63988 -0.759967 -0.736081
2.73049 0.781409 0.148843 100 -0.998788 0.0470403 0.0145202 -2.73049 -0.781409 -0.148843
2.68577 0.766581 0.34294 94 -0.94635 0.00675144 -0.323073 -2.68577 -0.766581 -0.34294
2.78021 0.79249 -0.252926 92 -0.998521 -0.0332502 -0.0430148 -2.78021 -0.79249 0.252926
2.66983 0.760522 0.539608 100 0.183603 0.0507749 -0.981688 -2.66983 -0.760522 -0.539608
2.75847 0.785252 -0.150309 86 -0.997989 -0.0617455 -0.0143281 -2.75847 -0.785252 0.150309
2.66348 0.757708 0.639311 95 0.211808 0.0608279 -0.975417 -2.66348 -0.757708 -0.639311
2.76774 0.787369 -0.050228 90 -0.915102 -0.399226 0.0566359 -2.76774 -0.787369 0.050228
2.64982 0.753321 0.738152 100 0.218804 0.0787675 -0.972584 -2.64982 -0.753321 -0.738152
2.26545 0.639351 -0.45756 7 -0.20571 -0.0516807 -0.977247 -2.26545 -0.639351 0.45756
2.73256 0.770661 0.248394 100 -0.0842985 -0.0244871 0.99614 -2.73256 -0.770661 -0.248394
2.59135 0.730837 -0.42644 7 -0.159369 -0.044081 -0.986234 -2.59135 -0.730837 0.42644
2.68829 0.757672 0.34294 90 -0.94635 0.00675144 -0.323073 -2.68829 -0.757672 -0.34294
2.69251 0.757845 0.443022 96 -0.989673 0.137059 -0.0419706 -2.69251 -0.757845 -0.443022
2.68368 0.754855 0.541898 100 0.183603 0.0507749 -0.981688 -2.68368 -0.754855 -0.541898
2.76106 0.776099 -0.150309 88 -0.915102 -0.399226 0.0566359 -2.76106 -0.776099 0.150309
2.65285 0.745182 0.636162 100 -0.891075 -0.453606 -0.0150642 -2.65285 -0.745182 -0.636162
2.76663 0.776622 -0.0501582 83 -0.915102 -0.399226 0.0566359 -2.76663 -0.776622 0.0501582
2.71856 0.757503 0.147901 91 -0.991076 0.127907 0.0375183 -2.71856 -0.757503 -0.147901
2.27323 0.633416 -0.458705 8 -0.235129 -0.068914 -0.969518 -2.27323 -0.633416 0.458705
2.6015 0.723905 -0.427692 7 -0.154282 -0.0426504 -0.987106 -2.6015 -0.723905 0.427692
2.67991 0.744214 0.44052 92 -0.985626 -0.0840812 -0.146535 -2.67991 -0.744214 -0.44052
2.77787 0.771415 -0.252229 97 -0.085439 -0.02197 -0.996101 -2.77787 -0.771415 0.252229
2.68252 0.744432 0.541134 100 0.183603 0.0507749 -0.981688 -2.68252 -0.744432 -0.541134
2.65355 0.735397 0.635712 92 -0.891075 -0.453606 -0.0150642 -2.65355 -0.735397 -0.635712
2.72697 0.749596 0.148215 100 -0.991817 0.113579 0.058306 -2.72697 -0.749596 -0.148215
2.26975 0.623915 -0.45756 8 -0.20571 -0.0516807 -0.977247 -2.26975 -0.623915 0.45756
2.72045 0.747295 0.246825 100 -0.991076 0.127907 0.0375183 -2.72045 -0.747295 -0.246825
2.60782 0.715865 -0.428318 7 -0.154282 -0.0426504 -0.987106 -2.60782 -0.715865 0.428318
2.70118 0.740985 0.343915 92 -0.123499 -0.0339506 0.991764 -2.70118 -0.740985 -0.343915
2.76901 0.758555 -0.251183 95 -0.0859902 -0.0217298 -0.996059 -2.76901 -0.758555 0.251183
2.65422 0.725615 0.635262 100 -0.959471 0.281112 0.0197854 -2.65422 -0.725615 -0.635262
2.71535 0.73571 0.246128 100 -0.991076 0.127907 0.0375183 -2.71535 -0.73571 -0.246128
2.69608 0.729478 0.34294 94 -0.94635 0.00675144 -0.323073 -2.69608 -0.729478 -0.34294
2.65732 0.717498 0.535028 93 0.183603 0.0507749 -0.981688 -2.65732 -0.717498 -0.535028
2.76518 0.746103 -0.1501 88 -0.996632 0.0813534 -0.0103118 -2.76518 -0.746103 0.1501
2.63956 0.710726 0.732458 100 0.232738 0.0638868 -0.970439 -2.63956 -0.710726 -0.732458
2.73521 0.732387 0.0494252 79 0.0167617 0.00458395 -0.999849 -2.73521 -0.732387 -0.0494252
2.72442 0.728476 0.147797 100 -0.991817 0.113579 0.058306 -2.72442 -0.728476 -0.147797
2.72175 0.727256 0.246476 100 -0.991076 0.127907 0.0375183 -2.72175 -0.727256 -0.246476
2.59939 0.694076 -0.426128 6 -0.159369 -0.044081 -0.986234 -2.59939 -0.694076 0.426128
2.68518 0.71648 0.341234 96 -0.94635 0.00675144 -0.323073 -2.68518 -0.71648 -0.341234
2.77039 0.73818 -0.250834 100 -0.0859902 -0.0217298 -0.996059 -2.77039 -0.73818 0.250834
2.67499 0.712259 0.538081 100 0.183603 0.0507749 -0.981688 -2.67499 -0.712259 -0.538081
2.71342 0.7154 0.147064 96 -0.991076 0.127907 0.0375183 -2.71342 -0.7154 -0.147064
2.62472 0.691033 -0.429882 6 -0.154282 -0.0426504 -0.987106 -2.62472 -0.691033 0.429882
2.68575 0.706599 0.34099 92 -0.94635 0.00675144 -0.323073 -2.68575 -0.706599 -0.34099
2.76651 0.727328 -0.351227 80 -0.993216 0.113165 0.0267338 -2.76651 -0.727328 0.351227
2.68505 0.704913 0.539608 100 -0.989673 0.137059 -0.0419706 -2.68505 -0.704913 -0.539608
2.64283 0.69284 0.630763 97 -0.959471 0.281112 0.0197854 -2.64283 -0.69284 -0.630763
2.76428 0.724165 -0.049879 87 -0.996632 0.0813534 -0.0103118 -2.76428 -0.724165 0.049879
2.71011 0.704416 0.14675 100 -0.991076 0.127907 0.0375183 -2.71011 -0.704416 -0.14675
2.608 0.676904 -0.426753 6 -0.159369 -0.044081 -0.986234 -2.608 -0.676904 0.426753
2.69204 0.698216 0.341478 94 0.118334 0.0291413 -0.992546 -2.69204 -0.698216 -0.341478
2.77672 0.719658 -0.352202 82 -0.118601 -0.0293564 -0.992508 -2.77672 -0.719658 0.352202
2.64312 0.68208 0.731423 100 -0.959471 0.281112 0.0197854 -2.64312 -0.68208 -0.731423
2.78306 0.710946 -0.35269 73 -0.118601 -0.0293564 -0.992508 -2.78306 -0.710946 0.35269
2.67565 0.683509 0.437391 100 -0.995087 -0.0842525 -0.0519974 -2.67565 -0.683509 -0.437391
2.6861 0.685179 0.538845 100 -0.980173 0.119818 -0.157815 -2.6861 -0.685179 -0.538845
2.76372 0.704464 -0.149472 86 -0.996632 0.0813534 -0.0103118 -2.76372 -0.704464 0.149472
2.74977 0.700397 -0.0495299 90 0.0168603 0.00423692 0.999849 -2.74977 -0.700397 0.0495299
2.63039 0.6695 0.727282 100 0.248022 0.058962 -0.966959 -2.63039 -0.6695 -0.727282
2.28803 0.577687 -0.458705 7 -0.18605 -0.0478401 -0.981375 -2.28803 -0.577687 0.458705
2.72005 0.686259 0.245431 100 0.0841561 0.0204503 -0.996243 -2.72005 -0.686259 -0.245431
2.66551 0.670519 0.534265 100 -0.188336 -0.0458293 0.981035 -2.66551 -0.670519 -0.534265
2.75635 0.69286 -0.148948 96 -0.0509792 -0.012757 -0.998618 -2.75635 -0.69286 0.148948
2.75608 0.691767 -0.0495997 87 0.0168603 0.00423692 0.999849 -2.75608 -0.691767 0.0495997
2.6402 0.662194 0.729352 100 0.232738 0.0638868 -0.970439 -2.6402 -0.662194 -0.729352
2.72231 0.677234 0.245431 100 0.0841561 0.0204503 -0.996243 -2.72231 -0.677234 -0.245431
2.5995 0.646201 -0.42425 6 -0.902217 -0.195857 0.384245 -2.5995 -0.646201 0.42425
2.68946 0.668066 0.340259 96 -0.119756 -0.0277589 0.992415 -2.68946 -0.668066 -0.340259
2.75294 0.681793 -0.148634 91 -0.0509792 -0.012757 -0.998618 -2.75294 -0.681793 0.148634
2.65213 0.656335 0.630763 97 -0.993089 0.0985016 -0.0638083 -2.65213 -0.656335 -0.630763
2.7603 0.683104 -0.0496346 94 0.0168603 0.00423692 0.999849 -2.7603 -0.683104 0.0496346
2.64238 0.653436 0.729352 100 -0.993089 0.0985016 -0.0638083 -2.64238 -0.653436 -0.729352
2.7303 0.671131 0.0490762 77 -0.984104 0.0145575 -0.176998 -2.7303 -0.671131 -0.0490762
2.71363 0.666029 0.146436 100 -0.0511516 -0.0118696 0.99862 -2.71363 -0.666029 -0.146436
2.28238 0.559761 -0.456797 7 0.179779 0.0412028 0.982844 -2.28238 -0.559761 0.456797
2.7324 0.669625 0.246128 100 0.0841561 0.0204503 -0.996243 -2.7324 -0.669625 -0.246128
2.6878 0.658198 0.339772 100 -0.119756 -0.0277589 0.992415 -2.6878 -0.658198 -0.339772
2.77468 0.678962 -0.35074 82 -0.118601 -0.0293564 -0.992508 -2.77468 -0.678962 0.35074
2.77738 0.678594 -0.250137 95 -0.085439 -0.02197 -0.996101 -2.77738 -0.678594 0.250137
2.66239 0.650498 0.532739 91 -0.188336 -0.0458293 0.981035 -2.66239 -0.650498 -0.532739
2.63914 0.643842 0.627164 100 -0.221659 -0.0516354 0.973756 -2.63914 -0.643842 -0.627164
2.6484 0.645122 0.730387 100 -0.993089 0.0985016 -0.0638083 -2.6484 -0.645122 -0.730387
2.27859 0.550408 -0.455652 8 -0.20571 -0.0516807 -0.977247 -2.27859 -0.550408 0.455652
2.67341 0.64331 0.435514 100 -0.995087 -0.0842525 -0.0519974 -2.67341 -0.64331 -0.435514
2.68002 0.644408 0.535792 100 -0.980173 0.119818 -0.157815 -2.68002 -0.644408 -0.535792
2.75763 0.662559 -0.148634 93 -0.0509792 -0.012757 -0.998618 -2.75763 -0.662559 0.148634
2.64323 0.63361 0.728317 100 -0.993089 0.0985016 -0.0638083 -2.64323 -0.63361 -0.728317
2.73114 0.650649 0.0490064 77 -0.0172227 -0.00372722 0.999845 -2.73114 -0.650649 -0.0490064
2.28823 0.543868 -0.457178 7 0.179779 0.0412028 0.982844 -2.28823 -0.543868 0.457178
2.78334 0.660005 -0.351227 80 -0.118601 -0.0293564 -0.992508 -2.78334 -0.660005 0.351227
2.6718 0.633064 0.434888 100 -0.995087 -0.0842525 -0.0519974 -2.6718 -0.633064 -0.434888
2.75502 0.652276 -0.247697 100 0.0777384 0.0178256 0.996814 -2.75502 -0.652276 0.247697
2.74211 0.647703 -0.0491809 90 0.0169063 0.00383676 0.99985 -2.74211 -0.647703 0.0491809
2.63603 0.62216 0.725729 100 0.232738 0.0638868 -0.970439 -2.63603 -0.62216 -0.725729
2.72251 0.637555 0.146541 96 -0.054603 -0.0117442 0.998439 -2.72251 -0.637555 -0.146541
2.29776 0.537667 -0.458705 7 -0.189694 -0.0398475 -0.981034 -2.29776 -0.537667 0.458705
2.70639 0.632786 0.243165 100 0.0841645 0.0201408 -0.996248 -2.70639 -0.632786 -0.243165
2.75452 0.640998 -0.148215 96 -0.998407 -0.0524443 0.020808 -2.75452 -0.640998 0.148215
2.66114 0.618777 0.630763 100 -0.980173 0.119818 -0.157815 -2.66114 -0.618777 -0.630763
2.6363 0.612518 0.725211 100 0.232738 0.0638868 -0.970439 -2.6363 -0.612518 -0.725211
2.71888 0.626703 0.146227 100 -0.0511516 -0.0118696 0.99862 -2.71888 -0.626703 -0.146227
2.2958 0.528761 -0.457942 7 -0.189694 -0.0398475 -0.981034 -2.2958 -0.528761 0.457942
2.71829 0.62557 0.244036 100 0.0841561 0.0204503 -0.996243 -2.71829 -0.62557 -0.244036
2.78401 0.639669 -0.35074 82 -0.125503 -0.0250541 -0.991777 -2.78401 -0.639669 0.35074
2.68 0.61528 0.435514 100 0.14967 0.0365291 -0.988061 -2.68 -0.61528 -0.435514
2.7222 0.61847 0.0487271 81 0.0167546 0.00378983 -0.999852 -2.7222 -0.61847 -0.0487271
2.76686 0.62557 -0.348303 80 -0.525363 0.0894477 0.846164 -2.76686 -0.62557 0.348303
2.68213 0.605922 0.435514 99 0.14967 0.0365291 -0.988061 -2.68213 -0.605922 -0.435514
2.74713 0.619597 -0.147587 100 -0.987372 -0.158346 0.00487297 -2.74713 -0.619597 0.147587
2.65008 0.597223 0.627164 100 -0.220012 -0.050694 0.974179 -2.65008 -0.597223 -0.627164
2.74484 0.618074 -0.0491111 85 0.0169063 0.00383676 0.99985 -2.74484 -0.618074 0.0491111
2.70759 0.604227 0.145389 100 -0.0511516 -0.0118696 0.99862 -2.70759 -0.604227 -0.145389
2.28785 0.510558 -0.455652 7 0.179779 0.0412028 0.982844 -2.28785 -0.510558 0.455652
2.67979 0.59655 0.337091 100 -0.119756 -0.0277589 0.992415 -2.67979 -0.59655 -0.337091
2.66881 0.593126 0.433011 100 -0.986079 -0.00610115 -0.166166 -2.66881 -0.593126 -0.433011
2.6832 0.595834 0.534265 100 0.185799 0.0409528 -0.981734 -2.6832 -0.595834 -0.534265
2.74538 0.609138 -0.147378 99 -0.987372 -0.158346 0.00487297 -2.74538 -0.609138 0.147378
2.63693 0.584593 0.623564 97 -0.221659 -0.0516354 0.973756 -2.63693 -0.584593 -0.623564
2.73918 0.606761 -0.0489715 90 -0.0173649 -0.00359256 -0.999843 -2.73918 -0.606761 0.0489715
2.72645 0.59945 0.0487271 83 -0.0172227 -0.00372722 0.999845 -2.72645 -0.59945 -0.0487271
2.29345 0.50341 -0.456415 8 0.179779 0.0412028 0.982844 -2.29345 -0.50341 0.456415
2.70902 0.594129 0.242642 100 0.0841645 0.0201408 -0.996248 -2.70902 -0.594129 -0.242642
2.6281 0.575903 -0.426128 6 -0.158497 -0.0324132 -0.986827 -2.6281 -0.575903 0.426128
2.68961 0.588889 0.338066 100 -0.120105 -0.0250195 0.992446 -2.68961 -0.588889 -0.338066
2.77881 0.60842 -0.349278 75 -0.125503 -0.0250541 -0.991777 -2.77881 -0.60842 0.349278
2.6669 0.583428 0.432385 100 -0.995782 0.0835228 -0.0379657 -2.6669 -0.583428 -0.432385
2.75529 0.601254 -0.147797 99 -0.998407 -0.0524443 0.020808 -2.75529 -0.601254 0.147797
2.64266 0.576676 0.624464 100 -0.221659 -0.0516354 0.973756 -2.64266 -0.576676 -0.624464
2.63317 0.573644 0.722105 100 0.248022 0.058962 -0.966959 -2.63317 -0.573644 -0.722105
2.72061 0.588714 0.0485875 83 0.0167546 0.00378983 -0.999852 -2.72061 -0.588714 -0.0485875
2.29511 0.495801 -0.456415 7 -0.189694 -0.0398475 -0.981034 -2.29511 -0.495801 0.456415
2.70903 0.584723 0.242467 100 -0.949765 0.0688699 -0.305294 -2.70903 -0.584723 -0.242467
2.68378 0.578294 0.337091 100 -0.120105 -0.0250195 0.992446 -2.68378 -0.578294 -0.337091
2.78081 0.599201 -0.349278 80 -0.125503 -0.0250541 -0.991777 -2.78081 -0.599201 0.349278
2.66416 0.572605 0.529686 100 0.185799 0.0409528 -0.981734 -2.66416 -0.572605 -0.529686
2.74555 0.589598 -0.147169 96 -0.987372 -0.158346 0.00487297 -2.74555 -0.589598 0.147169
2.64456 0.56791 0.624464 100 -0.221659 -0.0516354 0.973756 -2.64456 -0.56791 -0.624464
2.71668 0.578441 0.0484828 85 0.0167546 0.00378983 -0.999852 -2.71668 -0.578441 -0.0484828
2.07573 0.441588 -0.489943 9 -0.124711 -0.00500567 0.992181 -2.07573 -0.441588 0.489943
2.7207 0.577807 0.243339 100 -0.0865072 -0.0171749 0.996103 -2.7207 -0.577807 -0.243339
2.628 0.55764 -0.425502 6 -0.158497 -0.0324132 -0.986827 -2.628 -0.55764 0.425502
2.77512 0.587847 -0.348303 82 -0.125503 -0.0250541 -0.991777 -2.77512 -0.587847 0.348303
2.66604 0.563768 0.529686 100 0.185799 0.0409528 -0.981734 -2.66604 -0.563768 -0.529686
2.64653 0.558676 0.624464 100 -0.220012 -0.050694 0.974179 -2.64653 -0.558676 -0.624464
2.62946 0.554112 0.720035 100 0.248022 0.058962 -0.966959 -2.62946 -0.554112 -0.720035
2.07344 0.433541 -0.489044 8 -0.124711 -0.00500567 0.992181 -2.07344 -0.433541 0.489044
2.70775 0.565679 0.144971 100 -0.98358 0.179754 0.0160934 -2.70775 -0.565679 -0.144971
2.30236 0.480569 -0.457178 8 -0.189694 -0.0398475 -0.981034 -2.30236 -0.480569 0.457178
2.71695 0.566609 0.242816 100 -0.0865072 -0.0171749 0.996103 -2.71695 -0.566609 -0.242816
2.67211 0.556774 0.335141 100 -0.995782 0.0835228 -0.0379657 -2.67211 -0.556774 -0.335141
2.76938 0.576537 -0.347328 80 0.116816 0.023184 0.992883 -2.76938 -0.576537 0.347328
2.67277 0.555936 0.432385 100 -0.995782 0.0835228 -0.0379657 -2.67277 -0.555936 -0.432385
2.63711 0.5466 0.621765 100 -0.22814 -0.0406791 0.972778 -2.63711 -0.5466 -0.621765
2.72662 0.560193 0.0485875 83 -0.0172227 -0.00372722 0.999845 -2.72662 -0.560193 -0.0485875
2.07883 0.426723 -0.489943 8 -0.124711 -0.00500567 0.992181 -2.07883 -0.426723 0.489943
2.70589 0.554947 0.144761 100 -0.98358 0.179754 0.0160934 -2.70589 -0.554947 -0.144761
2.68191 0.548567 0.336116 100 -0.120105 -0.0250195 0.992446 -2.68191 -0.548567 -0.336116
2.77147 0.566384 -0.347328 78 0.116816 0.023184 0.992883 -2.77147 -0.566384 0.347328
2.639 0.53739 0.621765 100 -0.22814 -0.0406791 0.972778 -2.639 -0.53739 -0.621765
2.73749 0.556949 -0.048762 83 -0.0173649 -0.00359256 -0.999843 -2.73749 -0.556949 0.048762
2.62389 0.533359 0.717446 100 -0.260306 -0.0498012 0.964241 -2.62389 -0.533359 -0.717446
2.72268 0.549484 0.0484828 85 -0.0172227 -0.00372722 0.999845 -2.72268 -0.549484 -0.0484828
2.68771 0.539985 0.336603 100 -0.120105 -0.0250195 0.992446 -2.68771 -0.539985 -0.336603
2.66699 0.534853 0.430821 100 -0.995782 0.0835228 -0.0379657 -2.66699 -0.534853 -0.430821
2.71281 0.537645 0.0482734 94 0.0169605 0.00333856 -0.999851 -2.71281 -0.537645 -0.0482734
2.72332 0.539233 0.145494 100 0.0504968 0.0100958 -0.998673 -2.72332 -0.539233 -0.145494
2.29571 0.454146 -0.454889 8 -0.189694 -0.0398475 -0.981034 -2.29571 -0.454146 0.454889
2.6765 0.527535 0.432072 85 -0.997608 0.0519504 -0.0456091 -2.6765 -0.527535 -0.432072
2.74122 0.538303 -0.048762 85 -0.0173649 -0.00359256 -0.999843 -2.74122 -0.538303 0.048762
2.07929 0.40455 -0.489044 8 -0.124711 -0.00500567 0.992181 -2.07929 -0.40455 0.489044
2.71538 0.527817 0.144971 100 0.0504968 0.0100958 -0.998673 -2.71538 -0.527817 -0.144971
2.71286 0.526344 0.24177 100 -0.0865072 -0.0171749 0.996103 -2.71286 -0.526344 -0.24177
2.67378 0.518278 0.33441 81 -0.974494 0.215911 -0.0611878 -2.67378 -0.518278 -0.33441
2.77716 0.537814 -0.347328 78 -0.125503 -0.0250541 -0.991777 -2.77716 -0.537814 0.347328
2.75626 0.532768 -0.245605 100 -0.998407 -0.0524443 0.020808 -2.75626 -0.532768 0.245605
2.65813 0.5138 0.526251 34 -0.986079 -0.00610115 -0.166166 -2.65813 -0.5138 -0.526251
2.63865 0.50908 0.620415 31 -0.22814 -0.0406791 0.972778 -2.63865 -0.50908 -0.620415
2.74701 0.529489 -0.0488318 85 -0.999022 -0.0228033 0.0378931 -2.74701 -0.529489 0.0488318
2.72034 0.519918 0.0483432 94 0.0169605 0.00333856 -0.999851 -2.72034 -0.519918 -0.0483432
2.3026 0.439246 -0.455652 8 -0.189694 -0.0398475 -0.981034 -2.3026 -0.439246 0.455652
2.72241 0.518836 0.242467 64 -0.0865072 -0.0171749 0.996103 -2.72241 -0.518836 -0.242467
2.63328 0.501372 -0.424563 6 -0.155946 -0.0271665 -0.987392 -2.63328 -0.501372 0.424563
2.66777 0.507458 0.333435 32 -0.974494 0.215911 -0.0611878 -2.66777 -0.507458 -0.333435
2.76192 0.524368 -0.245953 100 0.0777384 0.0178256 0.996814 -2.76192 -0.524368 0.245953
2.6253 0.496055 0.715894 36 -0.260306 -0.0498012 0.964241 -2.6253 -0.496055 -0.715894
2.72803 0.511524 0.0484479 46 -0.995059 0.0622052 -0.0773806 -2.72803 -0.511524 -0.0484479
2.0859 0.390742 -0.489943 8 -0.224902 -0.0391766 -0.973593 -2.0859 -0.390742 0.489943
2.69544 0.504438 0.143715 31 -0.98358 0.179754 0.0160934 -2.69544 -0.504438 -0.143715
2.30412 0.431205 -0.455652 7 0.183316 0.0362785 0.982384 -2.30412 -0.431205 0.455652
2.7105 0.506767 0.241247 39 -0.949765 0.0688699 -0.305294 -2.7105 -0.506767 -0.241247
2.75743 0.514047 -0.344403 82 -0.525363 0.0894477 0.846164 -2.75743 -0.514047 0.344403
2.66165 0.49523 0.526251 33 -0.967955 0.246143 0.0497751 -2.66165 -0.49523 -0.526251
2.74122 0.50954 -0.146122 60 -0.982546 0.18199 0.0385115 -2.74122 -0.50954 0.146122
2.74277 0.508839 -0.0486922 39 -0.995059 0.0622052 -0.0773806 -2.74277 -0.508839 0.0486922
2.718 0.499829 0.0482385 29 0.0169605 0.00333856 -0.999851 -2.718 -0.499829 -0.0482385
2.69522 0.494665 0.14361 31 -0.98358 0.179754 0.0160934 -2.69522 -0.494665 -0.14361
2.30368 0.422805 -0.45527 7 0.183316 0.0362785 0.982384 -2.30368 -0.422805 0.45527
2.68101 0.490607 0.334653 37 -0.997608 0.0519504 -0.0456091 -2.68101 -0.490607 -0.334653
2.77288 0.506918 -0.346109 53 0.116816 0.023184 0.992883 -2.77288 -0.506918 0.346109
2.66223 0.48621 0.428631 38 -0.974494 0.215911 -0.0611878 -2.66223 -0.48621 -0.428631
2.74601 0.501014 -0.24421 37 -0.0866185 -0.0151944 -0.996126 -2.74601 -0.501014 0.24421
2.66336 0.485935 0.526251 21 -0.986079 -0.00610115 -0.166166 -2.66336 -0.485935 -0.526251
2.73119 0.49782 -0.145494 32 -0.982546 0.18199 0.0385115 -2.73119 -0.49782 0.145494
2.73076 0.496756 -0.0484479 32 -0.995059 0.0622052 -0.0773806 -2.73076 -0.496756 0.0484479
2.70989 0.488563 0.0480639 32 0.0169605 0.00333856 -0.999851 -2.70989 -0.488563 -0.0480639
2.69445 0.483837 0.239504 32 -0.98358 0.179754 0.0160934 -2.69445 -0.483837 -0.239504
2.7497 0.491777 -0.244385 40 -0.0866185 -0.0151944 -0.996126 -2.7497 -0.491777 0.244385
2.73103 0.487455 -0.145389 18 -0.982546 0.18199 0.0385115 -2.73103 -0.487455 0.145389
2.65901 0.474122 0.623564 30 -0.967955 0.246143 0.0497751 -2.65901 -0.474122 -0.623564
2.73248 0.487221 -0.0484479 34 -0.995059 0.0622052 -0.0773806 -2.73248 -0.487221 0.0484479
2.61894 0.466504 0.712788 31 0.246777 0.0407586 -0.968215 -2.61894 -0.466504 -0.712788
2.08994 0.368512 -0.489943 8 -0.224902 -0.0391766 -0.973593 -2.08994 -0.368512 0.489943
2.70648 0.477224 0.144029 19 0.0510828 0.00839988 -0.998659 -2.70648 -0.477224 -0.144029
2.30278 0.405629 -0.454507 7 -0.111364 0.0257803 0.993445 -2.30278 -0.405629 0.454507
2.6649 0.467977 0.332216 28 0.119437 0.0200722 -0.992639 -2.6649 -0.467977 -0.332216
2.74747 0.481487 -0.244036 35 -0.0866185 -0.0151944 -0.996126 -2.74747 -0.481487 0.244036
2.6455 0.46314 0.522053 28 -0.189905 -0.031291 0.981304 -2.6455 -0.46314 -0.522053
2.71108 0.474135 -0.144238 27 -0.981906 0.0885807 0.167376 -2.71108 -0.474135 0.144238
2.63006 0.459019 0.715376 32 -0.264977 -0.0463958 0.963138 -2.63006 -0.459019 -0.715376
2.69624 0.466205 0.143401 30 0.0510828 0.00839988 -0.998659 -2.69624 -0.466205 -0.143401
2.30605 0.398325 -0.454889 6 0.183316 0.0362785 0.982384 -2.30605 -0.398325 0.454889
2.61827 0.451313 -0.420809 5 0.145657 0.0299419 0.988882 -2.61827 -0.451313 0.420809
2.6671 0.45877 0.428631 32 -0.166561 -0.0256489 0.985698 -2.6671 -0.45877 -0.428631
2.75102 0.472712 -0.24421 21 -0.0866185 -0.0151944 -0.996126 -2.75102 -0.472712 0.24421
2.72982 0.467598 -0.0483432 27 -0.981906 0.0885807 0.167376 -2.72982 -0.467598 0.0483432
2.62586 0.44932 0.713823 30 0.246777 0.0407586 -0.968215 -2.62586 -0.44932 -0.713823
2.71872 0.461302 0.0481337 28 -0.998098 0.0610974 -0.00815431 -2.71872 -0.461302 -0.0481337
2.69921 0.456537 0.239504 32 -0.962204 0.121234 -0.243855 -2.69921 -0.456537 -0.239504
2.62365 0.443285 -0.421435 4 0.145657 0.0299419 0.988882 -2.62365 -0.443285 0.421435
2.75462 0.463437 -0.244385 27 -0.0866185 -0.0151944 -0.996126 -2.75462 -0.463437 0.244385
2.66408 0.447727 0.525106 28 0.174137 0.0291245 -0.984291 -2.66408 -0.447727 -0.525106
2.73788 0.459637 -0.145494 29 -0.975002 -0.12117 0.186248 -2.73788 -0.459637 0.145494
2.70344 0.447552 0.14361 31 0.0510828 0.00839988 -0.998659 -2.70344 -0.447552 -0.14361
2.69103 0.445016 0.238632 30 -0.992464 0.120031 -0.0246495 -2.69103 -0.445016 -0.238632
2.65667 0.437427 0.42644 34 0.142006 0.0235137 -0.989587 -2.65667 -0.437427 -0.42644
2.66183 0.437323 0.524343 29 0.174137 0.0291245 -0.984291 -2.66183 -0.437323 -0.524343
2.6403 0.433312 0.617716 28 0.21636 0.0405535 -0.975471 -2.6403 -0.433312 -0.617716
2.72323 0.446434 -0.0481686 28 -0.981906 0.0885807 0.167376 -2.72323 -0.446434 0.0481686
2.62519 0.429893 0.712788 31 0.246777 0.0407586 -0.968215 -2.62519 -0.429893 -0.712788
2.69834 0.437521 0.0477149 28 -0.0174027 -0.00251991 0.999845 -2.69834 -0.437521 -0.0477149
2.09296 0.338985 -0.489493 9 -0.224902 -0.0391766 -0.973593 -2.09296 -0.338985 0.489493
2.70901 0.438279 0.143819 28 0.0510828 0.00839988 -0.998659 -2.70901 -0.438279 -0.143819
2.70051 0.43642 0.23933 33 -0.962204 0.121234 -0.243855 -2.70051 -0.43642 -0.23933
2.668 0.429256 0.428005 32 -0.166561 -0.0256489 0.985698 -2.668 -0.429256 -0.428005
2.75007 0.441968 -0.243687 30 0.0856384 0.0133906 0.996236 -2.75007 -0.441968 0.243687
2.64984 0.425384 0.521672 30 -0.189905 -0.031291 0.981304 -2.64984 -0.425384 -0.521672
2.7392 0.43924 -0.145389 27 -0.975002 -0.12117 0.186248 -2.7392 -0.43924 0.145389
2.63995 0.423324 0.617266 27 -0.22814 -0.0406791 0.972778 -2.63995 -0.423324 -0.617266
2.72682 0.436767 -0.0482035 27 -0.981906 0.0885807 0.167376 -2.72682 -0.436767 0.0482035
2.62294 0.419656 0.711752 32 0.246777 0.0407586 -0.968215 -2.62294 -0.419656 -0.711752
2.30382 0.363653 -0.453362 6 -0.111364 0.0257803 0.993445 -2.30382 -0.363653 0.453362
2.62251 0.413489 -0.420496 6 -0.155962 -0.0252124 -0.987441 -2.62251 -0.413489 0.420496
2.75167 0.431886 -0.243687 30 0.0856384 0.0133906 0.996236 -2.75167 -0.431886 0.243687
2.64363 0.414453 0.520145 29 -0.189905 -0.031291 0.981304 -2.64363 -0.414453 -0.520145
2.73236 0.427388 -0.0482734 27 -0.99752 -0.0496842 0.0498456 -2.73236 -0.427388 0.0482734
2.62827 0.410637 0.712788 31 0.247824 0.0368683 -0.968103 -2.62827 -0.410637 -0.712788
2.29719 0.355214 -0.451836 6 0.173671 0.0314138 0.984303 -2.29719 -0.355214 0.451836
2.62191 0.404488 -0.420183 5 -0.155962 -0.0252124 -0.987441 -2.62191 -0.404488 0.420183
2.73423 0.419373 -0.144971 25 0.0510713 0.0071076 0.99867 -2.73423 -0.419373 0.144971
2.72248 0.412707 0.0480639 29 -0.998098 0.0610974 -0.00815431 -2.72248 -0.412707 -0.0480639
2.68961 0.407246 0.142563 28 -0.992464 0.120031 -0.0246495 -2.68961 -0.407246 -0.142563
2.30224 0.348182 -0.452599 6 0.173671 0.0314138 0.984303 -2.30224 -0.348182 0.452599
2.70683 0.408887 0.239504 32 -0.949859 9.44333e-05 -0.312679 -2.70683 -0.408887 -0.239504
2.63105 0.396971 -0.421435 5 0.154552 0.0217236 0.987746 -2.63105 -0.396971 0.421435
2.74614 0.413844 -0.34099 30 -0.992331 -0.0666904 0.104078 -2.74614 -0.413844 0.34099
2.75835 0.4147 -0.244036 30 0.0856384 0.0133906 0.996236 -2.75835 -0.4147 0.244036
2.65984 0.399415 0.522817 30 0.174137 0.0291245 -0.984291 -2.65984 -0.399415 -0.522817
2.0993 0.310747 -0.489943 8 0.204344 0.0265091 0.97854 -2.0993 -0.310747 0.489943
2.29567 0.338996 -0.451072 6 0.173671 0.0314138 0.984303 -2.29567 -0.338996 0.451072
2.68847 0.396998 0.237761 31 -0.999838 0.0138889 0.0114686 -2.68847 -0.396998 -0.237761
2.74006 0.402175 -0.242293 31 0.0856384 0.0133906 0.996236 -2.74006 -0.402175 0.242293
2.72064 0.397869 -0.0479941 27 0.0170819 0.00237369 0.999851 -2.72064 -0.397869 0.0479941
2.69641 0.388559 0.142773 28 -0.99971 0.0163011 -0.0177276 -2.69641 -0.388559 -0.142773
2.31245 0.332817 -0.454125 7 -0.175123 0.029984 0.98409 -2.31245 -0.332817 0.454125
2.65742 0.380573 0.425189 31 0.142006 0.0235137 -0.989587 -2.65742 -0.380573 -0.425189
2.72604 0.38846 -0.0480639 27 0.0170819 0.00237369 0.999851 -2.72604 -0.38846 0.0480639
2.7017 0.3797 0.142982 28 -0.99971 0.0163011 -0.0177276 -2.7017 -0.3797 -0.142982
2.69525 0.377833 0.238109 33 -0.99971 0.0163011 -0.0177276 -2.69525 -0.377833 -0.238109
2.63513 0.368937 -0.421435 5 0.154552 0.0217236 0.987746 -2.63513 -0.368937 0.421435
2.65482 0.370749 0.424563 31 0.142006 0.0235137 -0.989587 -2.65482 -0.370749 -0.424563
2.74879 0.383383 -0.242816 33 0.0860365 0.011667 0.996224 -2.74879 -0.383383 0.242816
2.64449 0.368365 0.519 29 -0.993265 0.0618616 -0.0979712 -2.64449 -0.368365 -0.519
2.72399 0.378955 -0.144133 28 -0.99752 -0.0496842 0.0498456 -2.72399 -0.378955 0.144133
2.73332 0.379766 -0.0481686 28 0.0170819 0.00237369 0.999851 -2.73332 -0.379766 0.0481686
2.66117 0.363116 0.329778 30 0.120072 0.0173559 -0.992613 -2.66117 -0.363116 -0.329778
2.75171 0.374981 -0.34099 30 -0.992331 -0.0666904 0.104078 -2.75171 -0.374981 0.34099
2.65414 0.361213 0.42425 33 -0.993265 0.0618616 -0.0979712 -2.65414 -0.361213 -0.42425
2.64765 0.359859 0.519382 30 -0.993265 0.0618616 -0.0979712 -2.64765 -0.359859 -0.519382
2.72919 0.370457 -0.144343 25 -0.99752 -0.0496842 0.0498456 -2.72919 -0.370457 0.144343
2.62433 0.355756 0.611417 29 0.221827 0.0315341 -0.974576 -2.62433 -0.355756 -0.611417
2.72869 0.369419 -0.0480639 29 0.0170819 0.00237369 0.999851 -2.72869 -0.369419 0.0480639
2.62852 0.35539 0.710717 32 0.247824 0.0368683 -0.968103 -2.62852 -0.35539 -0.710717
2.70548 0.361949 0.0476451 28 -0.0174027 -0.00251991 0.999845 -2.70548 -0.361949 -0.0476451
2.09962 0.280523 -0.489044 8 0.193408 0.0230175 0.980848 -2.09962 -0.280523 0.489044
2.68845 0.358716 0.142144 28 -0.999838 0.0138889 0.0114686 -2.68845 -0.358716 -0.142144
2.66242 0.353824 0.329778 30 0.120072 0.0173559 -0.992613 -2.66242 -0.353824 -0.329778
2.74936 0.364403 -0.242642 30 0.0860365 0.011667 0.996224 -2.74936 -0.364403 0.242642
2.73245 0.361189 -0.144447 27 -0.99752 -0.0496842 0.0498456 -2.73245 -0.361189 0.144447
2.7141 0.3578 -0.0477847 28 -0.998098 0.0610974 -0.00815431 -2.7141 -0.3578 0.0477847
2.62974 0.346212 0.710717 30 0.247824 0.0368683 -0.968103 -2.62974 -0.346212 -0.710717
2.10446 0.273695 -0.489943 8 -0.234839 -0.0227268 -0.971769 -2.10446 -0.273695 0.489943
2.69761 0.350358 0.142563 29 -0.99971 0.0163011 -0.0177276 -2.69761 -0.350358 -0.142563
2.64681 0.341412 0.422686 30 -0.993265 0.0618616 -0.0979712 -2.64681 -0.341412 -0.422686
2.65594 0.342117 0.520527 29 0.174137 0.0291245 -0.984291 -2.65594 -0.342117 -0.520527
2.62869 0.337676 0.611867 27 -0.263707 -0.0256023 0.964263 -2.62869 -0.337676 -0.611867
2.6156 0.335067 0.706576 31 -0.999141 0.0346094 -0.0227723 -2.6156 -0.335067 -0.706576
2.70397 0.34255 0.0475753 28 -0.0174027 -0.00251991 0.999845 -2.70397 -0.34255 -0.0475753
2.69684 0.34069 0.142458 28 -0.99971 0.0163011 -0.0177276 -2.69684 -0.34069 -0.142458
2.62233 0.330347 -0.418619 6 0.0945562 0.0079751 0.995488 -2.62233 -0.330347 0.418619
2.67074 0.335973 0.33051 32 -0.134077 -0.0115238 0.990904 -2.67074 -0.335973 -0.33051
2.64798 0.33217 0.422686 31 -0.156597 -0.0169874 0.987517 -2.64798 -0.33217 -0.422686
2.738 0.343463 -0.241421 31 0.0860365 0.011667 0.996224 -2.738 -0.343463 0.241421
2.73887 0.3426 -0.144657 27 0.0510713 0.0071076 0.99867 -2.73887 -0.3426 0.144657
2.63952 0.329705 0.614116 29 -0.981911 0.041004 -0.18485 -2.63952 -0.329705 -0.614116
2.71653 0.338845 -0.0477847 28 -0.0174456 -0.00185591 -0.999846 -2.71653 -0.338845 0.0477847
2.69721 0.332133 0.0474356 25 0.0172251 0.00196797 -0.99985 -2.69721 -0.332133 -0.0474356
2.6215 0.320952 -0.418306 5 0.147687 0.0128826 0.98895 -2.6215 -0.320952 0.418306
2.65416 0.324479 0.328316 31 -0.95983 -0.074483 -0.270516 -2.65416 -0.324479 -0.328316
2.66089 0.32436 0.424563 30 -0.160898 -0.0159425 0.986842 -2.66089 -0.32436 -0.424563
2.74512 0.334627 -0.241944 32 -0.0873725 -0.0095326 -0.99613 -2.74512 -0.334627 0.241944
2.63682 0.320959 0.516329 33 -0.189759 -0.0217879 0.981589 -2.63682 -0.320959 -0.516329
2.68527 0.320199 0.141726 29 -0.999734 0.0196226 -0.0120871 -2.68527 -0.320199 -0.141726
2.6946 0.320836 0.237412 32 -0.99934 0.0359697 0.00503626 -2.6946 -0.320836 -0.237412
2.62653 0.312265 -0.418932 5 0.0945562 0.0079751 0.995488 -2.62653 -0.312265 0.418932
2.65133 0.314745 0.327829 31 -0.131474 -0.0114501 0.991253 -2.65133 -0.314745 -0.327829
2.66004 0.314837 0.42425 32 -0.160898 -0.0159425 0.986842 -2.66004 -0.314837 -0.42425
2.7522 0.325744 -0.242467 33 -0.968014 0.208038 -0.14025 -2.7522 -0.325744 0.242467
2.72334 0.321366 -0.143715 25 0.0500469 0.00533855 0.998733 -2.72334 -0.321366 0.143715
2.73075 0.321273 -0.0479941 27 -0.999896 0.00193841 0.0142715 -2.73075 -0.321273 0.0479941
2.30129 0.266268 -0.450309 6 -0.190402 -0.0234321 -0.981426 -2.30129 -0.266268 0.450309
2.74739 0.315454 -0.241944 31 -0.968014 0.208038 -0.14025 -2.74739 -0.315454 0.241944
2.6585 0.304779 0.520145 31 -0.981911 0.041004 -0.18485 -2.6585 -0.304779 -0.520145
2.7304 0.312538 -0.144029 27 -0.999896 0.00193841 0.0142715 -2.7304 -0.312538 0.144029
2.62734 0.300277 0.610517 31 -0.263707 -0.0256023 0.964263 -2.62734 -0.300277 -0.610517
2.70054 0.30387 0.0474356 27 0.0172251 0.00196797 -0.99985 -2.70054 -0.30387 -0.0474356
2.10504 0.23649 -0.489044 8 -0.234839 -0.0227268 -0.971769 -2.10504 -0.23649 0.489044
2.68545 0.301221 0.141621 28 -0.999734 0.0196226 -0.0120871 -2.68545 -0.301221 -0.141621
2.31001 0.259108 -0.451836 6 -0.190402 -0.0234321 -0.981426 -2.31001 -0.259108 0.451836
2.69084 0.301351 0.236889 35 -0.99934 0.0359697 0.00503626 -2.69084 -0.301351 -0.236889
2.75019 0.30654 -0.339772 32 -0.121792 -0.0139659 -0.992457 -2.75019 -0.30654 0.339772
2.64254 0.294075 0.421122 32 -0.156597 -0.0169874 0.987517 -2.64254 -0.294075 -0.421122
2.73147 0.303006 -0.144029 24 -0.998296 -0.0579313 -0.00700512 -2.73147 -0.303006 0.144029
2.61721 0.288944 0.705541 31 0.255509 0.0304227 -0.966328 -2.61721 -0.288944 -0.705541
2.10198 0.22872 -0.488144 9 0.193408 0.0230175 0.980848 -2.10198 -0.22872 0.488144
2.68197 0.290881 0.236018 30 -0.999734 0.0196226 -0.0120871 -2.68197 -0.290881 -0.236018
2.62966 0.284744 -0.418932 4 0.0945562 0.0079751 0.995488 -2.62966 -0.284744 0.418932
2.66632 0.288243 0.329291 30 -0.134077 -0.0115238 0.990904 -2.66632 -0.288243 -0.329291
2.75321 0.29715 -0.340016 32 -0.121792 -0.0139659 -0.992457 -2.75321 -0.29715 0.340016
2.63324 0.283272 0.514803 29 -0.189759 -0.0217879 0.981589 -2.63324 -0.283272 -0.514803
2.73251 0.293469 -0.144029 23 -0.998296 -0.0579313 -0.00700512 -2.73251 -0.293469 0.144029
2.61436 0.279395 0.704505 31 -0.999141 0.0346094 -0.0227723 -2.61436 -0.279395 -0.704505
2.08726 0.219748 -0.484545 8 0.180816 0.0126421 0.983436 -2.08726 -0.219748 0.484545
2.69882 0.283182 0.237412 35 -0.901521 -0.0680699 -0.427348 -2.69882 -0.283182 -0.237412
2.64242 0.276798 -0.420809 5 -0.104554 0.0129212 0.994435 -2.64242 -0.276798 0.420809
2.74826 0.2874 -0.339284 31 0.121169 0.0115761 0.992564 -2.74826 -0.2874 0.339284
2.65627 0.277311 0.422999 32 -0.160898 -0.0159425 0.986842 -2.65627 -0.277311 -0.422999
2.74261 0.285841 -0.241247 31 -0.0873725 -0.0095326 -0.99613 -2.74261 -0.285841 0.241247
2.63812 0.274485 0.515566 33 -0.189759 -0.0217879 0.981589 -2.63812 -0.274485 -0.515566
2.72298 0.282354 -0.0477847 28 0.0166614 0.00170503 0.99986 -2.72298 -0.282354 0.0477847
2.70353 0.276046 0.0474356 28 -0.0176841 -0.00154803 0.999842 -2.70353 -0.276046 -0.0474356
2.67843 0.273009 0.141098 30 -0.990172 0.129592 -0.0525805 -2.67843 -0.273009 -0.141098
2.31646 0.235706 -0.452599 8 -0.211264 -0.02111 -0.977201 -2.31646 -0.235706 0.452599
2.68785 0.273023 0.236366 32 -0.0872869 -0.00753245 0.996155 -2.68785 -0.273023 -0.236366
2.65637 0.268888 0.327829 29 -0.901521 -0.0680699 -0.427348 -2.65637 -0.268888 -0.327829
2.74751 0.277144 -0.241596 32 -0.0873725 -0.0095326 -0.99613 -2.74751 -0.277144 0.241596
2.7265 0.274065 -0.14361 27 0.0500469 0.00533855 0.998733 -2.7265 -0.274065 0.14361
2.61567 0.262924 0.606918 29 -0.999141 0.0346094 -0.0227723 -2.61567 -0.262924 -0.606918
2.62769 0.263205 0.707611 31 0.254592 0.023296 -0.966768 -2.62769 -0.263205 -0.707611
2.70642 0.267275 0.0474705 29 -0.0176841 -0.00154803 0.999842 -2.70642 -0.267275 -0.0474705
2.68533 0.264245 0.141412 31 -0.990172 0.129592 -0.0525805 -2.68533 -0.264245 -0.141412
2.3055 0.226869 -0.450309 8 0.133298 0.00521036 0.991062 -2.3055 -0.226869 0.450309
2.6612 0.260465 0.328316 31 -0.95983 -0.074483 -0.270516 -2.6612 -0.260465 -0.328316
2.62045 0.254168 0.607818 31 0.223463 0.0193054 -0.974521 -2.62045 -0.254168 -0.607818
2.62475 0.25366 0.706576 31 0.254592 0.023296 -0.966768 -2.62475 -0.25366 -0.706576
2.69738 0.256877 0.047296 28 -0.0176841 -0.00154803 0.999842 -2.69738 -0.256877 -0.047296
2.10102 0.199714 -0.487244 8 0.193408 0.0230175 0.980848 -2.10102 -0.199714 0.487244
2.68623 0.254871 0.141412 28 -0.990172 0.129592 -0.0525805 -2.68623 -0.254871 -0.141412
2.67382 0.25275 0.234972 31 -0.0872869 -0.00753245 0.996155 -2.67382 -0.25275 -0.234972
2.64513 0.249574 -0.420809 5 0.113586 0.00789252 0.993497 -2.64513 -0.249574 0.420809
2.6621 0.251174 0.328316 30 -0.134077 -0.0115238 0.990904 -2.6621 -0.251174 -0.328316
2.64719 0.248834 0.421122 33 -0.156597 -0.0169874 0.987517 -2.64719 -0.248834 -0.421122
2.64667 0.247853 0.516711 34 -0.9904 0.0304067 -0.134848 -2.64667 -0.247853 -0.516711
2.63107 0.245467 0.610067 32 -0.263707 -0.0256023 0.964263 -2.63107 -0.245467 -0.610067
2.61408 0.243421 0.70347 31 -0.999141 0.0346094 -0.0227723 -2.61408 -0.243421 -0.70347
2.69831 0.24699 0.047296 29 -0.0176841 -0.00154803 0.999842 -2.69831 -0.24699 -0.047296
2.68262 0.244138 0.235669 32 -0.0872869 -0.00753245 0.996155 -2.68262 -0.244138 -0.235669
2.63025 0.238909 -0.418306 5 0.147687 0.0128826 0.98895 -2.63025 -0.238909 0.418306
2.65904 0.241056 0.327829 31 -0.901521 -0.0680699 -0.427348 -2.65904 -0.241056 -0.327829
2.76189 0.249894 -0.340503 30 0.121169 0.0115761 0.992564 -2.76189 -0.249894 0.340503
2.62803 0.235932 0.609167 30 0.223463 0.0193054 -0.974521 -2.62803 -0.235932 -0.609167
2.71869 0.243593 -0.0476451 27 -0.0174456 -0.00185591 -0.999846 -2.71869 -0.243593 0.0476451
2.68322 0.236166 0.0470168 29 -0.990172 0.129592 -0.0525805 -2.68322 -0.236166 -0.0470168
2.08686 0.183311 -0.483645 8 0.180816 0.0126421 0.983436 -2.08686 -0.183311 0.483645
2.31561 0.202998 -0.451836 9 -0.211264 -0.02111 -0.977201 -2.31561 -0.202998 0.451836
2.68545 0.234945 0.235843 35 -0.0872869 -0.00753245 0.996155 -2.68545 -0.234945 -0.235843
2.63894 0.230414 -0.419557 4 0.154242 0.0132341 0.987944 -2.63894 -0.230414 0.419557
2.75088 0.239219 -0.339041 31 0.121169 0.0115761 0.992564 -2.75088 -0.239219 0.339041
2.63268 0.228016 0.513658 37 -0.973665 0.0892799 -0.209774 -2.63268 -0.228016 -0.513658
2.71812 0.234937 -0.142982 27 0.0500469 0.00533855 0.998733 -2.71812 -0.234937 0.142982
2.71953 0.234103 -0.0476451 27 0.0166614 0.00170503 0.99986 -2.71953 -0.234103 0.0476451
2.6119 0.224378 0.702435 32 -0.998334 0.00672579 -0.057301 -2.6119 -0.224378 -0.702435
2.09914 0.177008 -0.486344 8 0.204344 0.0265091 0.97854 -2.09914 -0.177008 0.486344
2.67482 0.225551 0.140679 30 -0.934436 -0.355425 -0.0224118 -2.67482 -0.225551 -0.140679
2.31435 0.194748 -0.451454 8 0.186439 0.0123366 0.982389 -2.31435 -0.194748 0.451454
2.68823 0.225739 0.236018 32 -0.997642 -0.0166143 -0.0665909 -2.68823 -0.225739 -0.236018
2.63973 0.2212 -0.419557 5 0.154242 0.0132341 0.987944 -2.63973 -0.2212 0.419557
2.65077 0.22166 0.32661 33 -0.131474 -0.0114501 0.991253 -2.65077 -0.22166 -0.32661
2.64965 0.221101 0.421122 33 -0.973665 0.0892799 -0.209774 -2.64965 -0.221101 -0.421122
2.74796 0.228821 -0.241247 35 -0.0876215 -0.00656332 -0.996132 -2.74796 -0.228821 0.241247
2.63933 0.219312 0.514803 32 0.181098 0.0117545 -0.983395 -2.63933 -0.219312 -0.514803
2.72427 0.225412 -0.0477149 28 -0.0180574 -0.00115437 -0.999836 -2.72427 -0.225412 0.0477149
2.69672 0.218868 0.0472262 28 -0.934436 -0.355425 -0.0224118 -2.69672 -0.218868 -0.0472262
2.69099 0.216513 0.236192 37 -0.997642 -0.0166143 -0.0665909 -2.69099 -0.216513 -0.236192
2.74057 0.219539 -0.337578 33 -0.968014 0.208038 -0.14025 -2.74057 -0.219539 0.337578
2.73086 0.217801 -0.239678 27 0.0866404 0.006292 0.99622 -2.73086 -0.217801 0.239678
2.72563 0.216906 -0.143296 25 0.0511833 0.00351558 0.998683 -2.72563 -0.216906 0.143296
2.62449 0.208396 0.607818 31 0.223463 0.0193054 -0.974521 -2.62449 -0.208396 -0.607818
2.62685 0.207661 0.706058 32 0.254592 0.023296 -0.966768 -2.62685 -0.207661 -0.706058
2.10418 0.163017 -0.487244 8 -0.234839 -0.0227268 -0.971769 -2.10418 -0.163017 0.487244
2.30584 0.178235 -0.449546 6 0.133298 0.00521036 0.991062 -2.30584 -0.178235 0.449546
2.68176 0.206821 0.23532 38 -0.0872869 -0.00753245 0.996155 -2.68176 -0.206821 -0.23532
2.64511 0.20353 -0.420183 5 0.154242 0.0132341 0.987944 -2.64511 -0.20353 0.420183
2.71976 0.20641 -0.0476102 30 -0.0180574 -0.00115437 -0.999836 -2.71976 -0.20641 0.0476102
2.60248 0.197053 0.699329 35 0.239973 0.0133458 -0.970688 -2.60248 -0.197053 -0.699329
2.67821 0.199025 0.0468772 25 -0.934436 -0.355425 -0.0224118 -2.67821 -0.199025 -0.0468772
2.1086 0.156326 -0.488144 8 -0.234839 -0.0227268 -0.971769 -2.1086 -0.156326 0.488144
2.63001 0.193598 -0.41768 5 0.147687 0.0128826 0.98895 -2.63001 -0.193598 0.41768
2.74596 0.20117 -0.338066 30 -0.122718 -0.00795218 -0.99241 -2.74596 -0.20117 0.338066
2.62771 0.191584 0.512131 37 -0.990109 -0.052847 -0.129969 -2.62771 -0.191584 -0.512131
2.72704 0.198348 -0.143296 24 0.0511833 0.00351558 0.998683 -2.72704 -0.198348 0.143296
2.72246 0.19706 -0.0476451 28 -0.0180574 -0.00115437 -0.999836 -2.72246 -0.19706 0.0476451
2.6869 0.189772 0.0470168 28 0.0172698 0.00107335 -0.99985 -2.6869 -0.189772 -0.0470168
2.63465 0.184232 -0.418306 5 0.147687 0.0128826 0.98895 -2.63465 -0.184232 0.418306
2.65051 0.183947 0.420809 34 -0.973665 0.0892799 -0.209774 -2.65051 -0.183947 -0.420809
2.62448 0.181682 0.511368 36 -0.99726 -0.0442174 -0.0593012 -2.62448 -0.181682 -0.511368
2.62653 0.180901 0.607818 31 -0.98802 -0.0611424 -0.1417 -2.62653 -0.180901 -0.607818
2.69552 0.180927 0.0471564 28 0.0172698 0.00107335 -0.99985 -2.69552 -0.180927 -0.0471564
2.68035 0.178968 0.140784 31 -0.998155 0.0528763 -0.0298611 -2.68035 -0.178968 -0.140784
2.68577 0.17886 0.235495 35 -0.999752 0.000298495 -0.0222567 -2.68577 -0.17886 -0.235495
2.65104 0.176082 -0.420809 5 0.113586 0.00789252 0.993497 -2.65104 -0.176082 0.420809
2.65421 0.175827 0.32661 32 -0.131474 -0.0114501 0.991253 -2.65421 -0.175827 -0.32661
2.64522 0.174305 0.41987 32 -0.992012 -0.00928671 -0.125804 -2.64522 -0.174305 -0.41987
2.63685 0.173291 0.513658 36 -0.986463 -0.0343743 -0.160344 -2.63685 -0.173291 -0.513658
2.71644 0.178045 -0.142668 28 -0.0527925 -0.00296915 -0.998601 -2.71644 -0.178045 0.142668
2.71582 0.177053 -0.0475054 27 -0.0180574 -0.00115437 -0.999836 -2.71582 -0.177053 0.0475054
2.61407 0.169961 0.701917 32 -0.998334 0.00672579 -0.057301 -2.61407 -0.169961 -0.701917
2.69215 0.171263 0.0470866 29 0.0172698 0.00107335 -0.99985 -2.69215 -0.171263 -0.0470866
2.67497 0.169232 0.14047 33 -0.998155 0.0528763 -0.0298611 -2.67497 -0.169232 -0.14047
2.65164 0.166828 -0.420809 5 0.133732 0.0113754 0.990952 -2.65164 -0.166828 0.420809
2.73226 0.169984 -0.239504 33 0.0866404 0.006292 0.99622 -2.73226 -0.169984 0.239504
2.63744 0.164085 0.513658 37 -0.986463 -0.0343743 -0.160344 -2.63744 -0.164085 -0.513658
2.71903 0.168686 -0.142773 27 -0.0527925 -0.00296915 -0.998601 -2.71903 -0.168686 0.142773
2.70844 0.167078 -0.0473658 29 -0.0174364 -0.00111051 -0.999847 -2.70844 -0.167078 0.0473658
2.61465 0.160836 0.701917 32 -0.260347 -0.0139012 0.965415 -2.61465 -0.160836 -0.701917
2.69872 0.162224 0.0471913 30 0.0172698 0.00107335 -0.99985 -2.69872 -0.162224 -0.0471913
2.65735 0.157411 0.326854 34 -0.992012 -0.00928671 -0.125804 -2.65735 -0.157411 -0.326854
2.6341 0.154188 0.512895 39 -0.986463 -0.0343743 -0.160344 -2.6341 -0.154188 -0.512895
2.72761 0.159184 -0.143191 24 0.0511833 0.00351558 0.998683 -2.72761 -0.159184 0.143191
2.60748 0.15126 0.699847 32 -0.260347 -0.0139012 0.965415 -2.60748 -0.15126 -0.699847
2.10326 0.118328 -0.486344 8 -0.225653 -0.0106649 -0.974149 -2.10326 -0.118328 0.486344
2.68606 0.151115 0.140993 37 -0.999752 0.000298495 -0.0222567 -2.68606 -0.151115 -0.140993
2.75307 0.152476 -0.338553 33 -0.122718 -0.00795218 -0.99241 -2.75307 -0.152476 0.338553
2.64295 0.146377 0.419244 37 0.149821 0.00687662 -0.988689 -2.64295 -0.146377 -0.419244
2.7294 0.150685 -0.239155 35 0.0866404 0.006292 0.99622 -2.7294 -0.150685 0.239155
2.63267 0.144884 0.512513 41 -0.986463 -0.0343743 -0.160344 -2.63267 -0.144884 -0.512513
2.72217 0.149334 -0.142877 27 0.0511833 0.00351558 0.998683 -2.72217 -0.149334 0.142877
