x,y,z,intensity
1.47371,-6.0271,0.982721,87
1.4721,-6.02508,-0.542632,100
1.479,-6.05331,1.21126,100
1.47085,-6.02454,-0.325006,100
1.36112,-5.57931,1.32586,15
1.47054,-6.0324,-0.108379,99
1.1572,-4.75061,1.31014,82
0.715582,-2.95335,-0.814245,8
1.46295,-6.04248,0.108519,100
0.830772,-3.434,-0.815673,8
1.45953,-6.03757,0.32553,100
1.02549,-4.24212,-0.848337,1
1.27228,-5.27104,-0.858825,1
1.46192,-6.06137,0.765583,100
1.45482,-6.03654,-0.762415,100
1.45451,-6.03989,0.983973,90
1.44931,-6.0183,-0.541586,100
1.45786,-6.05843,1.21126,100
1.45215,-6.03935,-0.32553,100
1.343,-5.58971,1.32721,15
1.44994,-6.03944,-0.108414,97
1.13835,-4.74522,1.30755,87
0.702578,-2.94455,-0.811139,8
1.4386,-6.03393,0.108275,94
0.821039,-3.44636,-0.817922,7
1.4389,-6.04457,0.325634,100
1.0125,-4.25332,-0.849863,1
1.43481,-6.03202,0.542457,1
1.24839,-5.25238,-0.855071,1
1.43846,-6.05678,0.764365,94
1.43557,-6.0493,-0.76339,98
1.43661,-6.05839,0.986163,70
1.43335,-6.04465,-0.543503,100
1.43444,-6.05393,1.20935,100
1.43106,-6.04438,-0.32553,100
1.32528,-5.60195,1.32901,15
1.43023,-6.0503,-0.108519,83
1.12311,-4.75481,1.30911,110
0.694946,-2.95827,-0.814245,10
1.41844,-6.04281,0.108345,100
0.805889,-3.43592,-0.814773,8
1.41825,-6.0515,0.325739,100
0.994958,-4.24536,-0.847574,1
1.41011,-6.02147,0.541063,15
1.23455,-5.27594,-0.8582,1
1.4146,-6.05016,0.762902,100
1.41445,-6.05428,-0.76339,100
1.41545,-6.06337,0.986163,82
1.41224,-6.04962,-0.543503,100
1.41463,-6.06464,1.21049,100
1.40814,-6.04156,-0.325111,100
1.30306,-5.59515,1.32631,15
1.41137,-6.065,-0.108694,97
1.10826,-4.76623,1.31118,110
0.685486,-2.96444,-0.81528,8
1.40139,-6.06526,0.108659,100
0.795644,-3.44631,-0.816572,8
1.39667,-6.05447,0.325634,100
0.984546,-4.26793,-0.85139,1
1.394,-6.04771,0.54298,6
1.21346,-5.26867,-0.856322,1
1.39837,-6.07635,0.765583,100
1.39152,-6.05144,-0.762415,100
1.39738,-6.08175,0.988353,86
1.39424,-6.0681,-0.544723,100
1.39521,-6.07719,1.21202,100
1.38927,-6.05617,-0.325634,100
1.28265,-5.59587,1.32541,15
1.39064,-6.07184,-0.108728,92
1.0942,-4.78137,1.31428,110
0.675563,-2.9687,-0.815798,10
1.3811,-6.07401,0.108728,100
0.784473,-3.45287,-0.817472,8
1.37641,-6.0632,0.325844,100
0.965295,-4.2522,-0.847574,1
1.37288,-6.05254,0.54298,13
1.19507,-5.27288,-0.856322,1
1.37671,-6.07925,0.76534,100
1.37352,-6.07503,0.986476,86
1.37659,-6.09352,1.21431,100
1.37076,-6.07267,-0.326262,100
1.26354,-5.60221,1.32586,13
1.36899,-6.0747,-0.108694,85
1.07453,-4.77196,1.31066,116
0.662663,-2.95973,-0.812692,10
1.36076,-6.0827,0.108798,100
0.771564,-3.45178,-0.816572,7
1.35698,-6.07576,0.326262,100
0.949591,-4.25171,-0.84681,1
1.35131,-6.05535,0.542806,1
1.17063,-5.25002,-0.851942,1
1.35937,-6.10146,0.767533,100
1.29489,-5.81686,-0.731704,10
1.35488,-6.09135,0.988353,83
1.28695,-5.78596,-0.518577,10
1.35616,-6.10212,1.21507,100
1.35216,-6.08912,-0.32689,100
1.24524,-5.6123,1.32721,15
1.34908,-6.0853,-0.108798,92
1.05787,-4.77569,1.31066,115
0.654821,-2.97335,-0.815798,10
1.33866,-6.08351,0.108728,100
0.762022,-3.46587,-0.819272,7
1.33919,-6.09607,0.3271,100
0.934744,-4.255,-0.84681,1
1.33615,-6.08728,0.545246,1
1.15357,-5.25987,-0.852881,2
1.33806,-6.10617,0.767533,100
1.24996,-5.70888,-0.717567,10
1.3353,-6.10376,0.989605,86
1.24376,-5.68531,-0.509164,11
1.33401,-6.10298,1.21431,100
1.33004,-6.0899,-0.326681,100
1.22689,-5.62232,1.32856,13
1.32826,-6.09193,-0.108833,90
1.04284,-4.7869,1.31273,115
0.644438,-2.97561,-0.815798,10
1.31826,-6.09205,0.108798,100
0.746625,-3.45327,-0.815673,7
1.31875,-6.10461,0.327309,100
0.921543,-4.26591,-0.848337,1
1.31069,-6.07243,0.543503,3
1.1377,-5.27545,-0.854758,2
1.3159,-6.10692,0.767046,100
1.20829,-5.61229,-0.704892,10
1.31648,-6.11998,0.991482,87
1.20379,-5.59612,-0.500797,11
1.31311,-6.10952,1.21469,100
1.30877,-6.0945,-0.326681,100
1.20644,-5.62276,1.32766,13
1.31117,-6.11608,-0.109182,97
1.02855,-4.80185,1.31584,117
0.635657,-2.9854,-0.817868,10
1.30032,-6.11227,0.109078,100
0.735781,-3.46158,-0.817022,6
1.29494,-6.09746,0.326681,100
0.909094,-4.28062,-0.850627,1
1.30024,-6.12764,0.548035,55
1.11805,-5.27359,-0.853819,2
1.2954,-6.11536,0.767533,100
1.16568,-5.50772,-0.691243,12
1.29429,-6.12067,0.990856,83
1.16529,-5.51063,-0.492779,11
1.2934,-6.12175,1.21622,100
1.28832,-6.10294,-0.32689,100
1.186,-5.62312,1.32676,15
1.28982,-6.12062,-0.109182,90
1.01497,-4.82053,1.31998,117
0.622857,-2.97626,-0.814762,10
1.28143,-6.12851,0.109287,100
0.725288,-3.47176,-0.818822,7
1.2761,-6.11367,0.327309,100
0.894949,-4.28762,-0.85139,1
1.28168,-6.1458,0.549255,100
1.10286,-5.29293,-0.856322,3
1.27566,-6.12762,0.768508,100
1.12785,-5.42235,-0.680031,12
1.27211,-6.12128,0.99023,83
1.1278,-5.42688,-0.484935,3
1.27482,-6.13968,1.21889,96
1.26822,-6.11327,-0.327204,100
1.16597,-5.62532,1.32631,15
1.26723,-6.11921,-0.109078,92
0.997351,-4.82026,1.31894,116
0.611686,-2.97463,-0.813727,10
1.25922,-6.12903,0.109217,100
0.715124,-3.48381,-0.821071,7
1.25636,-6.12591,0.327728,100
0.876821,-4.27533,-0.848337,1
1.25782,-6.13852,0.54821,100
1.08755,-5.31223,-0.858825,9
1.25625,-6.14176,0.769727,100
1.09024,-5.33485,-0.668575,26
1.25311,-6.1373,0.992108,86
1.08853,-5.33122,-0.476045,47
1.25338,-6.14409,1.21889,85
1.24089,-6.0883,-0.325634,100
1.14672,-5.63127,1.32676,13
1.24706,-6.12948,-0.109182,90
0.97898,-4.81614,1.31687,117
0.599004,-2.96539,-0.810621,10
1.23703,-6.12947,0.109147,100
0.703729,-3.49011,-0.821971,7
1.23654,-6.13809,0.328146,100
0.864218,-4.28991,-0.850627,1
1.23796,-6.15069,0.548907,100
1.06705,-5.30631,-0.857261,19
1.23598,-6.15195,0.770458,100
1.07395,-5.3503,-0.670038,90
1.23401,-6.15325,0.993985,87
1.06913,-5.33108,-0.475696,61
1.23193,-6.14843,1.21889,74
1.22747,-6.13177,-0.327728,56
1.1282,-5.64097,1.32811,15
1.22996,-6.15536,-0.109566,78
0.963296,-4.82521,1.31842,105
0.59316,-2.9902,-0.816833,10
0.688514,-3.47725,-0.818372,7
1.21588,-6.14629,0.328356,100
0.846953,-4.28134,-0.848337,1
1.21803,-6.16279,0.549604,100
1.04048,-5.2693,-0.850691,11
1.21373,-6.15233,0.769971,100
1.0449,-5.30143,-0.663457,18
1.21405,-6.16528,0.995236,90
1.03766,-5.27436,-0.470292,12
1.21046,-6.15269,1.21889,64
1.10813,-5.64296,1.32766,13
0.954251,-4.86835,1.32929,39
0.581459,-2.98856,-0.815798,10
1.02083,-5.2468,0.0933006,6
0.676372,-3.47963,-0.818372,7
1.1929,-6.14265,0.327937,100
0.831255,-4.28442,-0.848337,1
1.19923,-6.18677,0.551347,100
1.00802,-5.20521,-0.83974,14
1.19376,-6.16432,0.770946,100
1.00754,-5.2076,-0.65127,11
1.19252,-6.16948,0.995236,83
1.00564,-5.20753,-0.464017,12
1.18901,-6.16287,1.22003,52
1.0059,-5.21865,-0.278532,10
1.08633,-5.64124,1.32631,15
1.00432,-5.21537,-0.0927072,9
0.941266,-4.89252,1.33499,21
0.57211,-2.99626,-0.817351,8
0.985101,-5.16408,0.0917648,8
0.665438,-3.49166,-0.820621,7
1.17444,-6.16248,0.328775,100
0.813357,-4.27187,-0.845284,1
1.17688,-6.18701,0.550999,100
0.978042,-5.14659,-0.829729,15
1.17301,-6.17841,0.772164,100
0.976608,-5.14884,-0.64347,13
1.16877,-6.16196,0.993359,87
0.971877,-5.12879,-0.456696,12
1.16968,-6.17856,1.22232,39
0.972828,-5.14363,-0.274345,12
1.06627,-5.64308,1.32586,15
0.970147,-5.13435,-0.0912063,8
0.922749,-4.88819,1.33292,18
0.558802,-2.98305,-0.813209,8
0.955452,-5.10049,0.090578,9
0.653856,-3.49385,-0.820621,6
1.15402,-6.17243,0.329089,100
0.806371,-4.31714,-0.853679,1
1.15418,-6.1852,0.550476,100
0.946838,-5.07407,-0.817527,13
1.1536,-6.18812,0.772895,100
0.947171,-5.0857,-0.635183,13
1.14942,-6.17765,0.995236,87
0.938311,-5.04792,-0.449201,12
1.14847,-6.17854,1.22156,34
0.944827,-5.08791,-0.271205,12
1.04791,-5.6485,1.32631,15
0.939828,-5.07086,-0.0900195,10
0.904274,-4.88378,1.33085,18
0.551003,-2.99629,-0.816315,8
0.921745,-5.01726,0.0890422,11
0.640248,-3.48844,-0.818822,6
1.13391,-6.18428,0.329507,100
0.787093,-4.29275,-0.848337,1
1.13474,-6.19487,0.550999,100
0.912408,-4.98602,-0.802822,13
1.13271,-6.19601,0.773383,100
0.916573,-5.01868,-0.626409,12
1.12927,-6.1894,0.996488,86
0.90961,-4.9904,-0.443797,12
1.12373,-6.16513,1.21812,33
0.914179,-5.02044,-0.267437,10
1.02888,-5.65596,1.32721,15
0.90925,-5.00328,-0.0887629,10
0.88791,-4.89071,1.33188,18
0.538647,-2.99068,-0.814245,8
0.892173,-4.95353,0.0878554,11
0.627378,-3.48682,-0.817922,6
1.11302,-6.19213,0.329717,100
0.773436,-4.3072,-0.850627,1
1.11519,-6.21664,0.552567,100
0.882629,-4.92517,-0.792497,13
1.11038,-6.19602,0.772895,100
0.883657,-4.93587,-0.615684,12
1.11044,-6.20886,0.998991,90
0.87957,-4.92294,-0.437522,12
1.10113,-6.16921,1.21812,33
0.878944,-4.92938,-0.262413,12
1.00883,-5.66353,1.32811,15
0.883363,-4.95917,-0.0879252,12
0.87151,-4.89758,1.33292,18
0.529548,-3.00015,-0.816315,10
0.8629,-4.89375,0.0867385,10
0.613918,-3.48526,-0.817022,7
1.09071,-6.19204,0.329507,100
0.753633,-4.28281,-0.845284,1
1.09486,-6.22834,0.553265,100
0.855181,-4.86985,-0.783111,11
1.09075,-6.21765,0.775089,100
0.853224,-4.86868,-0.606909,12
1.09115,-6.22632,1.00118,92
0.852072,-4.8671,-0.432292,12
1.08161,-6.18462,1.22041,38
0.850733,-4.86946,-0.259063,9
0.985703,-5.64782,1.32361,15
0.850232,-4.87161,-0.0863196,12
0.855073,-4.9044,1.33395,18
0.520389,-3.0096,-0.818386,8
0.837809,-4.84535,0.0858309,10
0.60302,-3.49111,-0.817922,6
1.07045,-6.20369,0.329926,100
0.738012,-4.28154,-0.844521,1
1.07379,-6.23606,0.553613,100
0.829306,-4.8162,-0.774038,13
1.07113,-6.2271,0.77582,100
0.827661,-4.81671,-0.600085,12
1.06774,-6.22035,0.999616,90
0.826323,-4.81899,-0.42776,7
1.06143,-6.19011,1.2208,53
0.826824,-4.82698,-0.256656,13
0.968941,-5.66259,1.32631,15
0.821767,-4.80753,-0.0851328,12
0.836647,-4.89974,1.33188,18
0.508469,-2.99988,-0.81528,8
0.81655,-4.82262,0.0853772,1
0.59278,-3.50473,-0.820621,6
1.05045,-6.21723,0.330449,100
0.729697,-4.31881,-0.85139,1
1.05244,-6.23565,0.553265,100
0.801652,-4.75479,-0.763713,13
1.05203,-6.24646,0.77777,100
0.800304,-4.75692,-0.592285,14
1.04798,-6.23573,1.00149,87
0.800431,-4.76276,-0.422531,1
1.03949,-6.19184,1.22041,61
0.798739,-4.76286,-0.253097,13
0.949169,-5.66593,1.32631,15
0.795738,-4.75515,-0.0841555,12
0.820176,-4.90644,1.33292,18
0.496729,-2.99401,-0.813209,8
0.779768,-4.7051,0.083248,3
0.580224,-3.50485,-0.820172,7
1.03135,-6.23662,0.331287,100
0.712054,-4.30584,-0.848337,1
1.03294,-6.25305,0.554485,100
0.774758,-4.69519,-0.753701,30
1.0286,-6.2403,0.776551,100
0.775309,-4.70876,-0.585948,19
1.02781,-6.2491,1.00306,100
0.772807,-4.69868,-0.416604,32
1.0166,-6.18768,1.21889,72
0.770788,-4.69664,-0.249433,26
0.930016,-5.67306,1.32721,16
0.771379,-4.71053,-0.0833178,22
0.801174,-4.89783,1.32981,19
0.489371,-3.0148,-0.818386,8
0.761739,-4.69792,0.0830735,57
0.567364,-3.50301,-0.819272,7
1.01053,-6.2461,0.331601,76
0.7058,-4.36256,-0.859022,1
1.00952,-6.24678,0.553613,69
0.757734,-4.69397,-0.753076,61
1.00081,-6.20662,0.77192,35
0.757605,-4.7036,-0.584973,65
1.00505,-6.2468,1.00212,53
0.7583,-4.71315,-0.41765,67
0.994994,-6.19119,1.21889,82
0.755655,-4.70719,-0.249852,73
0.908973,-5.66857,1.32541,15
0.755248,-4.71517,-0.0833527,64
0.785598,-4.91014,1.3324,19
0.478239,-3.01267,-0.817351,8
0.745648,-4.70253,0.0831084,58
0.555437,-3.50689,-0.819722,6
0.977797,-6.18054,0.327937,95
0.691181,-4.36888,-0.859785,1
0.982111,-6.21485,0.550476,100
0.743193,-4.70829,-0.754953,60
0.920393,-5.83751,0.72561,35
0.739638,-4.69641,-0.583754,60
0.978326,-6.21905,0.997113,93
0.740915,-4.70987,-0.417127,67
0.9749,-6.20432,1.2208,100
0.73891,-4.70783,-0.249747,63
0.888276,-5.66594,1.32406,13
0.739403,-4.72173,-0.0834225,66
0.769349,-4.91858,1.33395,18
0.468312,-3.01814,-0.818386,8
0.731067,-4.71696,0.0833178,61
0.542,-3.50111,-0.817922,6
0.957437,-6.19182,0.328356,100
0.674726,-4.3635,-0.858259,1
0.960411,-6.21824,0.550476,100
0.728259,-4.72062,-0.756517,61
0.868872,-5.6386,0.700505,19
0.725354,-4.7127,-0.58546,58
0.953309,-6.20095,0.993672,92
0.72447,-4.71243,-0.417127,63
0.954429,-6.21545,1.22232,100
0.723078,-4.71432,-0.249957,69
0.868492,-5.669,1.32406,15
0.721707,-4.71637,-0.0832829,60
0.751591,-4.91741,1.33292,18
0.456037,-3.0083,-0.81528,11
0.714597,-4.71948,0.0833178,58
0.532106,-3.51839,-0.821521,6
0.937608,-6.20697,0.328984,38
0.659491,-4.36583,-0.858259,1
0.935133,-6.19791,0.548384,27
0.712366,-4.72704,-0.757143,64
0.848594,-5.63768,0.700018,56
0.710079,-4.72305,-0.586435,63
0.932538,-6.2101,0.99461,28
0.708016,-4.71493,-0.417127,66
0.932727,-6.21874,1.22232,45
0.707209,-4.72077,-0.250166,69
0.849275,-5.67585,1.32496,15
0.707012,-4.73073,-0.0834923,64
0.732996,-4.91045,1.33033,19
0.446947,-3.01943,-0.817868,16
0.697241,-4.71601,0.0832131,57
0.518683,-3.51252,-0.819722,6
0.906027,-6.14302,0.325425,19
0.638517,-4.32926,-0.850627,1
0.890554,-6.04542,0.534613,15
0.694711,-4.72168,-0.755891,61
0.824579,-5.61115,0.696361,84
0.694741,-4.73336,-0.58741,61
0.903979,-6.16641,0.987102,18
0.693288,-4.7292,-0.418173,65
0.902765,-6.16563,1.21126,20
0.691882,-4.73112,-0.250585,69
0.830584,-5.6865,1.32676,15
0.691072,-4.73713,-0.0835621,60
0.716129,-4.91489,1.33085,18
0.437786,-3.03053,-0.820456,18
0.681917,-4.72633,0.0833527,57
0.504196,-3.49887,-0.816122,6
0.87519,-6.08091,0.321971,21
0.62508,-4.34312,-0.852916,1
0.861225,-5.9913,0.529558,30
0.679347,-4.73189,-0.757143,61
0.802171,-5.59434,0.693924,49
0.678215,-4.73575,-0.58741,65
0.87154,-6.09326,0.9749,16
0.678468,-4.74342,-0.419219,67
0.869577,-6.08711,1.19523,17
0.674799,-4.72955,-0.250375,63
0.811004,-5.69129,1.32721,15
0.675378,-4.74545,-0.0836668,62
0.700056,-4.92501,1.33292,18
0.428283,-3.03969,-0.822527,18
0.667087,-4.74057,0.0835621,57
0.493064,-3.50833,-0.817922,6
0.843687,-6.01075,0.318098,19
0.611008,-4.35305,-0.854443,1
0.830901,-5.92718,0.523632,34
0.661731,-4.72641,-0.755891,33
0.759271,-5.43,0.673206,19
0.660582,-4.73023,-0.586435,65
0.839623,-6.01996,0.962698,18
0.662457,-4.74971,-0.419568,67
0.840198,-6.03178,1.18378,19
0.659111,-4.73781,-0.250689,73
0.788988,-5.67865,1.32361,15
0.658809,-4.74778,-0.0836668,62
0.683391,-4.93125,1.33395,18
0.415041,-3.02203,-0.817351,8
0.652438,-4.75673,0.0838065,61
0.482402,-3.52162,-0.820621,6
0.812953,-5.94242,0.31433,19
0.594744,-4.34738,-0.852916,1
0.800227,-5.85701,0.517182,16
0.637484,-4.67193,-0.746818,18
0.738972,-5.42278,0.671988,54
0.645137,-4.74037,-0.58741,61
0.807166,-5.93869,0.949244,17
0.645337,-4.74804,-0.419219,65
0.81016,-5.96853,1.1708,17
0.643911,-4.74998,-0.251213,69
0.769421,-5.6833,1.32406,13
0.643036,-4.756,-0.0837715,60
0.666174,-4.93361,1.33395,18
0.40244,-3.00814,-0.813209,8
0.635829,-4.75898,0.0838065,58
0.472167,-3.53873,-0.824221,6
0.784292,-5.88583,0.31119,19
0.575417,-4.31829,-0.84681,1
0.771368,-5.79656,0.511604,15
0.62039,-4.66825,-0.74588,18
0.717427,-5.40565,0.66955,64
0.624934,-4.71505,-0.583998,16
0.778913,-5.88468,0.940171,22
0.629281,-4.75422,-0.419568,67
0.779801,-5.89931,1.15668,24
0.628894,-4.76408,-0.251841,65
0.750088,-5.68981,1.32496,13
0.625908,-4.75425,-0.0837017,60
0.647437,-4.92441,1.33085,18
0.391937,-3.00952,-0.813209,8
0.618698,-4.75721,0.0837367,61
0.4568,-3.51717,-0.818822,6
0.756549,-5.83307,0.308259,19
0.563369,-4.34364,-0.85139,1
0.739613,-5.71031,0.50376,13
0.603839,-4.66843,-0.745567,19
0.696264,-5.3904,0.667357,45
0.601869,-4.66601,-0.577661,24
0.752058,-5.83839,0.93235,19
0.613701,-4.76429,-0.420265,63
0.750437,-5.83384,1.14333,21
0.611243,-4.75832,-0.251422,69
0.732207,-5.70786,1.32856,13
0.610326,-4.76434,-0.0838414,60
0.630244,-4.92664,1.33085,19
0.38143,-3.01087,-0.813209,8
0.603343,-4.76926,0.0839112,55
0.444521,-3.51874,-0.818822,6
0.727184,-5.76434,0.304491,19
0.547221,-4.33779,-0.849863,2
0.693279,-5.50332,0.485283,12
0.5688,-4.52156,-0.721789,9
0.67596,-5.38098,0.665894,31
0.585578,-4.66808,-0.577661,17
0.72308,-5.77237,0.921399,16
0.585427,-4.67348,-0.412072,11
0.721784,-5.77019,1.13035,22
0.594135,-4.75646,-0.251213,65
0.71276,-5.71425,1.32946,13
0.595668,-4.78231,-0.0841206,56
0.613997,-4.93648,1.33292,18
0.373751,-3.0352,-0.819421,8
0.587424,-4.77729,0.0840159,54
0.43271,-3.52414,-0.819722,6
0.69928,-5.70341,0.301141,17
0.531121,-4.33188,-0.848337,1
0.694403,-5.67182,0.499925,12
0.550617,-4.50391,-0.71866,38
0.657413,-5.38528,0.666138,40
0.565917,-4.64251,-0.574248,13
0.694095,-5.70231,0.909823,16
0.565499,-4.64583,-0.409458,26
0.695479,-5.722,1.12043,19
0.578249,-4.76445,-0.251527,45
0.690934,-5.70122,1.32586,18
0.578732,-4.78238,-0.0840857,58
0.59792,-4.94818,1.33551,17
0.361548,-3.02306,-0.815798,10
0.572404,-4.79321,0.0842602,57
0.420637,-3.52756,-0.820172,7
0.671338,-5.63838,0.297582,19
0.51321,-4.31031,-0.843757,1
0.671777,-5.65047,0.497834,15
0.535591,-4.51169,-0.719599,36
0.640013,-5.39937,0.6676,94
0.535242,-4.52224,-0.559137,61
0.666999,-5.64388,0.900124,17
0.550916,-4.66163,-0.410678,22
0.668599,-5.6659,1.10898,21
0.547125,-4.64346,-0.245037,42
0.665108,-5.65328,1.31416,22
0.560634,-4.77245,-0.0838763,58
0.580419,-4.94832,1.33499,17
0.349434,-3.01087,-0.812174,8
0.555439,-4.79319,0.0842253,58
0.408544,-3.53095,-0.820621,6
0.64661,-5.59704,0.29528,18
0.50402,-4.36278,-0.853679,1
0.642461,-5.56965,0.490513,15
0.519386,-4.5096,-0.718973,34
0.62275,-5.41537,0.669306,66
0.519227,-4.52211,-0.558893,60
0.640544,-5.5873,0.890738,16
0.518755,-4.52496,-0.398476,67
0.641672,-5.60579,1.09677,19
0.53114,-4.64733,-0.245142,45
0.640068,-5.6091,1.30337,21
0.538765,-4.72868,-0.0830735,16
0.562269,-4.94264,1.33292,18
0.339354,-3.01591,-0.813209,8
0.538034,-4.78914,0.0841206,57
0.394044,-3.51298,-0.816122,6
0.620845,-5.54369,0.292349,18
0.485947,-4.33915,-0.848719,2
0.618809,-5.53424,0.487201,18
0.518764,-4.64685,-0.740561,15
0.615937,-5.52602,0.682712,14
0.504975,-4.5377,-0.560599,48
0.615148,-5.53649,0.88229,17
0.502737,-4.52477,-0.398302,77
0.614092,-5.5358,1.08265,18
0.501502,-4.52806,-0.238757,100
0.614488,-5.55706,1.29077,18
0.51304,-4.64705,-0.0816075,37
0.545859,-4.95225,1.33499,17
0.328825,-3.01707,-0.813209,8
0.518718,-4.76713,0.0837017,21
0.382201,-3.51821,-0.817022,6
0.59546,-5.49022,0.289418,18
0.472279,-4.35448,-0.85139,2
0.595411,-5.49873,0.483889,21
0.511458,-4.73112,-0.753701,15
0.591105,-5.47682,0.676375,21
0.490409,-4.55128,-0.562061,40
0.589901,-5.48361,0.87353,17
0.487152,-4.52847,-0.398476,62
0.588475,-5.47935,1.0712,22
0.486971,-4.5417,-0.239385,120
0.588033,-5.49329,1.27547,18
0.488315,-4.56928,-0.0802113,33
0.529594,-4.96373,1.33758,17
0.318696,-3.02204,-0.814245,10
0.486791,-4.62374,0.0811537,37
0.371139,-3.53115,-0.819722,6
0.569206,-5.42473,0.285859,18
0.453184,-4.31901,-0.844139,2
0.569572,-5.43737,0.478311,7
0.49494,-4.73287,-0.753701,15
0.566625,-5.42752,0.670038,21
0.49057,-4.70696,-0.581073,14
0.565237,-5.43259,0.865083,17
0.473816,-4.55393,-0.400568,66
0.564274,-5.43255,1.06166,19
0.470084,-4.53344,-0.238861,100
0.561632,-5.42553,1.25928,18
0.471541,-4.563,-0.0800716,88
0.512462,-4.96747,1.33809,17
0.308537,-3.02698,-0.81528,8
0.463765,-4.55777,0.0799669,30
0.358417,-3.52855,-0.818822,6
0.438105,-4.32056,-0.844139,4
0.54517,-5.3858,0.473604,13
0.459748,-4.54983,-0.724292,16
0.543692,-5.38997,0.665163,19
0.474931,-4.71655,-0.582048,14
0.540344,-5.37557,0.855697,16
0.474258,-4.71811,-0.414861,21
0.541779,-5.39932,1.05479,19
0.455253,-4.54499,-0.239385,100
0.537648,-5.37704,1.24758,18
0.45422,-4.55069,-0.0798273,73
0.494736,-4.96539,1.33706,19
0.297212,-3.02035,-0.813209,8
0.44883,-4.56931,0.0801414,57
0.346098,-3.52978,-0.818822,7
0.451749,-4.61558,0.243048,111
0.415945,-4.24977,-0.830019,4
0.448875,-4.59449,0.40388,6
0.408393,-4.18769,-0.666411,14
0.513334,-5.27328,0.650539,17
0.441762,-4.54628,-0.560843,14
0.516427,-5.32433,0.847249,17
0.455861,-4.69991,-0.413118,21
0.516685,-5.33669,1.0422,21
0.454179,-4.69963,-0.247444,28
0.514198,-5.33039,1.23633,18
0.439865,-4.56817,-0.0801065,78
0.476293,-4.95555,1.33395,18
0.286303,-3.01752,-0.812174,8
0.431747,-4.5589,0.079932,46
0.333408,-3.52709,-0.817922,6
0.431319,-4.5714,0.240641,48
0.397788,-4.21602,-0.82315,5
0.430967,-4.57619,0.402137,37
0.393403,-4.18515,-0.665785,37
0.48491,-5.16832,0.637377,55
0.41719,-4.45491,-0.549387,9
0.493059,-5.27497,0.839115,17
0.42703,-4.56856,-0.401439,36
0.492401,-5.27787,1.03037,19
0.436289,-4.68527,-0.246607,24
0.49144,-5.28753,1.22598,18
0.432414,-4.66127,-0.0817122,16
0.459169,-4.9591,1.33447,19
0.27612,-3.02235,-0.813209,8
0.416193,-4.56437,0.0800018,45
0.320741,-3.52435,-0.817022,7
0.415902,-4.57884,0.240955,39
0.365488,-4.02381,-0.78537,2
0.415529,-4.58362,0.40266,27
0.379147,-4.19043,-0.666411,41
0.37776,-4.19141,-0.516726,42
0.470395,-5.22944,0.831606,16
0.406439,-4.51843,-0.396907,16
0.468884,-5.22285,1.0193,19
0.408168,-4.55547,-0.239699,100
0.468294,-5.2368,1.21384,22
0.419872,-4.70458,-0.0824452,37
0.442713,-4.9703,1.33706,18
0.266582,-3.03484,-0.816315,8
0.408291,-4.65743,0.0816075,19
0.307927,-3.51962,-0.815673,7
0.399221,-4.57231,0.240536,27
0.350074,-4.00942,-0.782317,9
0.400738,-4.59894,0.40388,15
0.36195,-4.16221,-0.661718,9
0.398528,-4.59212,0.565961,12
0.362785,-4.18874,-0.516239,34
0.446184,-5.16217,0.820655,1
0.363041,-4.20024,-0.368843,33
0.448119,-5.19511,1.01358,1
0.392778,-4.56284,-0.240013,19
0.445341,-5.18404,1.20124,3
0.331197,-3.86324,-0.0676804,4
0.255338,-3.02806,-0.814245,8
0.330326,-3.92553,0.0687625,1
0.297107,-3.53815,-0.819722,6
0.328694,-3.93904,-0.626051,1
0.317848,-3.8496,-0.202436,1
0.315743,-3.84046,-0.0672616,27
0.320495,-3.9066,1.05029,1
0.243833,-3.01738,-0.811139,8
0.310835,-3.8549,0.0675059,1
0.284442,-3.53528,-0.818822,6
0.303064,-3.77497,-0.736141,1
0.30298,-3.79051,-0.602273,1
0.304061,-3.82927,-0.336073,1
0.304408,-3.85069,-0.202436,1
0.299511,-3.80565,-0.0666333,36
0.302622,-3.85377,1.03579,1
0.233596,-3.02206,-0.812174,8
0.291996,-3.78618,0.0662842,7
0.272997,-3.54791,-0.821521,6
0.291746,-3.79157,0.199295,5
0.290937,-3.78971,-0.738812,10
0.290171,-3.78839,0.332412,4
0.288994,-3.7817,-0.600708,10
0.289299,-3.79441,0.467247,2
0.289089,-3.8004,-0.467978,8
0.289921,-3.81134,0.605401,2
0.287375,-3.78661,-0.332238,13
0.289488,-3.82329,0.7453,2
0.286602,-3.79397,-0.1994,23
0.28822,-3.82428,0.885407,4
0.286439,-3.80064,-0.0665286,82
0.286509,-3.81045,1.02389,4
0.223614,-3.03056,-0.814245,8
0.279733,-3.79111,0.0663541,26
0.260658,-3.54102,-0.819722,6
0.279533,-3.80651,0.200028,12
0.278998,-3.80832,-0.742247,8
0.279414,-3.82316,0.335375,11
0.277028,-3.79052,-0.60196,10
0.277581,-3.80723,0.46871,6
0.277061,-3.80926,-0.468953,10
0.279189,-3.8478,0.611033,5
0.275306,-3.80348,-0.333632,12
0.276525,-3.82031,0.744537,5
0.273444,-3.78693,-0.198981,16
0.275957,-3.83104,0.886757,4
0.273457,-3.80561,-0.0665984,67
0.273758,-3.81913,1.02596,4
0.213835,-3.03514,-0.81528,8
0.267899,-3.81202,0.0667031,43
0.247478,-3.53025,-0.817022,6
0.265826,-3.80149,0.199714,39
0.266915,-3.81706,-0.743774,31
0.266873,-3.82605,0.33555,44
0.26544,-3.81511,-0.605714,36
0.264015,-3.80421,0.468222,26
0.262939,-3.79832,-0.467491,50
0.263579,-3.81722,0.606027,16
0.262967,-3.80835,-0.333981,50
0.263458,-3.82517,0.7453,19
0.261592,-3.80779,-0.200028,81
0.260983,-3.80865,0.881358,16
0.260853,-3.81651,-0.0667729,123
0.260163,-3.81621,1.02492,11
0.202465,-3.02431,-0.812174,8
0.254325,-3.80894,0.0666333,83
0.235931,-3.54276,-0.819722,6
0.252687,-3.80439,0.199819,92
0.252028,-3.79446,-0.739194,32
0.253779,-3.83094,0.335898,81
0.252382,-3.81995,-0.60634,39
0.252823,-3.8368,0.472122,89
0.2502,-3.80713,-0.468466,45
0.249865,-3.8122,0.605089,53
0.249932,-3.81322,-0.334329,47
0.249975,-3.82411,0.744918,44
0.248559,-3.81266,-0.200237,46
0.249078,-3.83093,0.886307,41
0.246882,-3.80742,-0.0665984,28
0.246217,-3.80745,1.02234,32
0.191785,-3.02307,-0.811657,10
0.240902,-3.80781,0.0665984,21
0.224544,-3.55912,-0.823321,7
0.23928,-3.80325,0.199714,20
0.238411,-3.78944,-0.738049,20
0.239158,-3.81192,0.334155,19
0.237319,-3.79321,-0.60196,20
0.238316,-3.81983,0.469928,19
0.23617,-3.7961,-0.467003,25
0.236434,-3.81108,0.604776,17
0.235139,-3.79021,-0.332238,21
0.236383,-3.82104,0.744155,17
0.233527,-3.7856,-0.198772,24
0.235345,-3.82594,0.884957,17
0.232366,-3.7883,-0.0662493,27
0.232217,-3.79672,1.01923,22
0.181115,-3.02179,-0.811139,8
0.225699,-3.77669,0.0660399,18
0.211656,-3.5521,-0.821521,6
0.225056,-3.78811,0.198877,16
0.223553,-3.76281,-0.732707,11
0.223729,-3.77693,0.331017,15
0.221515,-3.75063,-0.595077,11
0.223347,-3.7929,0.466516,16
0.221289,-3.76916,-0.463591,12
0.221513,-3.78427,0.600396,11
0.220743,-3.77112,-0.330495,14
0.220413,-3.77677,0.735378,12
0.219267,-3.76845,-0.19783,16
0.220183,-3.79561,0.877759,12
0.218333,-3.77512,-0.066005,12
0.216739,-3.75894,1.00888,13
0.171219,-3.03398,-0.814245,8
0.210381,-3.73952,0.0653767,10
0.198928,-3.54698,-0.820172,7
0.20949,-3.747,0.196679,11
0.208225,-3.72437,-0.725074,10
0.208216,-3.73591,0.327357,11
0.206668,-3.71982,-0.590071,12
0.206812,-3.73419,0.459204,11
0.205723,-3.7263,-0.458229,8
0.206457,-3.75149,0.595077,8
0.205498,-3.73406,-0.327183,9
0.204754,-3.73242,0.726601,9
0.203167,-3.71534,-0.195004,9
0.204811,-3.75744,0.868761,12
0.201899,-3.71595,-0.0649579,9
0.202258,-3.73459,1.00215,11
0.161036,-3.04227,-0.816315,10
0.195957,-3.71427,0.064923,10
0.186545,-3.54765,-0.820172,8
0.193691,-3.69585,0.193957,11
0.193168,-3.68586,-0.717442,10
0.193927,-3.71274,0.325265,11
0.191218,-3.67318,-0.582562,10
0.192234,-3.70515,0.455548,6
0.190869,-3.69131,-0.453841,10
0.190921,-3.70484,0.587568,8
0.190822,-3.70292,-0.324394,9
0.190114,-3.70175,0.720495,9
0.188359,-3.68013,-0.19312,9
0.189113,-3.70753,0.857064,12
0.187202,-3.68268,-0.0643645,10
0.187657,-3.70441,0.993865,11
0.150607,-3.04667,-0.817351,8
0.181121,-3.67698,0.0642598,10
0.174448,-3.55412,-0.821521,9
0.179619,-3.67256,0.192701,11
0.177999,-3.63945,-0.708283,10
0.179414,-3.68155,0.322476,9
0.177628,-3.65804,-0.580059,11
0.176325,-3.64434,0.447992,2
0.176645,-3.6642,-0.450429,8
0.176092,-3.66602,0.581311,8
0.175983,-3.66376,-0.320907,10
0.17644,-3.6867,0.717442,9
0.174371,-3.65682,-0.191864,9
0.174598,-3.67508,0.849415,11
0.172548,-3.64536,-0.0637013,10
0.172814,-3.66451,0.982995,10
0.139084,-3.02788,-0.812174,8
0.16664,-3.64163,0.0636315,8
0.162395,-3.56249,-0.823321,14
0.16571,-3.64923,0.191445,11
0.164225,-3.61651,-0.703704,10
0.164761,-3.64235,0.31899,9
0.163257,-3.62312,-0.574427,10
0.162713,-3.6251,0.445554,30
0.162258,-3.62909,-0.446042,8
0.162415,-3.64688,0.578182,8
0.161243,-3.62057,-0.317073,10
0.162178,-3.65591,0.711336,8
0.159753,-3.61551,-0.189666,9
0.160826,-3.65425,0.844466,11
0.15886,-3.62397,-0.0633173,10
0.158167,-3.62263,0.971607,10
0.128678,-3.03221,-0.813209,8
0.152153,-3.60024,0.0628985,10
0.150205,-3.56888,-0.824671,22
0.151299,-3.60987,0.189352,12
0.150449,-3.5896,-0.698361,11
0.151132,-3.621,0.317073,11
0.148805,-3.58024,-0.567544,10
0.14973,-3.61771,0.444579,33
0.148608,-3.60584,-0.443117,10
0.148874,-3.62769,0.575053,8
0.14746,-3.59324,-0.314632,10
0.147492,-3.60938,0.702177,9
0.146401,-3.59808,-0.188723,9
0.147359,-3.63726,0.840417,9
0.145081,-3.59653,-0.0628287,10
0.144746,-3.60386,0.96643,10
0.118243,-3.0365,-0.814245,10
0.138424,-3.57077,0.0623749,10
0.136619,-3.54017,-0.817922,26
0.137777,-3.58643,0.188095,12
0.137014,-3.56657,-0.693782,10
0.137426,-3.59364,0.314632,11
0.135255,-3.5531,-0.563164,10
0.136048,-3.59044,0.441167,12
0.134674,-3.57063,-0.43873,10
0.135099,-3.59858,0.57036,10
0.13387,-3.56586,-0.312192,10
0.133865,-3.5824,0.696835,11
0.132059,-3.55067,-0.186211,9
0.13322,-3.59881,0.831419,9
0.131494,-3.56903,-0.06234,10
0.131245,-3.57925,0.959701,11
0.10819,-3.05234,-0.818386,8
0.125042,-3.54526,0.0619211,10
0.123918,-3.53089,-0.815673,23
0.123584,-3.53898,0.185583,11
0.12333,-3.53171,-0.686912,11
0.123497,-3.55427,0.311146,11
0.122237,-3.53579,-0.560348,11
0.122218,-3.5532,0.436536,13
0.120851,-3.5314,-0.433855,10
0.12099,-3.55362,0.563164,8
0.120744,-3.54639,-0.310449,10
0.120429,-3.55538,0.691492,11
0.119126,-3.53514,-0.185374,9
0.119286,-3.55835,0.821971,11
0.117703,-3.5295,-0.0616419,10
0.117918,-3.55458,0.952972,11
0.0970416,-3.03725,-0.814245,7
0.112221,-3.53168,0.0616768,8
0.111039,-3.51377,-0.811623,20
0.110666,-3.52143,0.184641,9
0.109768,-3.49287,-0.67928,11
0.110405,-3.53277,0.309229,11
0.109096,-3.51053,-0.556281,11
0.109079,-3.52979,0.433611,12
0.108157,-3.51989,-0.432392,10
0.107379,-3.51453,0.556907,8
0.107391,-3.51493,-0.30766,10
0.107303,-3.53223,0.686912,9
0.105941,-3.50758,-0.183909,9
0.105929,-3.52758,0.814773,11
0.104188,-3.48991,-0.0609438,9
0.104764,-3.52987,0.946242,11
0.0858894,-3.01826,-0.809068,3
0.0990451,-3.50207,0.0611532,10
0.09828,-3.49661,-0.807574,16
0.0976474,-3.49584,0.183281,11
0.0968619,-3.46772,-0.674319,12
0.0968011,-3.48733,0.305219,11
0.0961881,-3.48719,-0.552527,14
0.0961036,-3.50634,0.430686,12
0.0948976,-3.48453,-0.428005,11
0.0944688,-3.49119,0.553152,8
0.0943123,-3.48541,-0.305045,11
0.0942332,-3.50511,0.68157,11
0.09295,-3.47998,-0.182443,11
0.0928907,-3.50065,0.808474,12
0.0918999,-3.48626,-0.060874,9
0.0911273,-3.48,0.932784,11
0.0758834,-3.03979,-0.814762,1
0.0857793,-3.46041,0.0604202,14
0.0852108,-3.46186,-0.799476,23
0.0848588,-3.4722,0.182024,15
0.0844213,-3.4543,-0.671648,15
0.0840474,-3.46375,0.303128,13
0.083444,-3.46381,-0.548772,21
0.0829147,-3.46696,0.425812,16
0.0823563,-3.46896,-0.426055,16
0.0818627,-3.47372,0.550336,13
0.0813004,-3.44986,-0.301907,21
0.0811714,-3.47008,0.674701,15
0.0801065,-3.45033,-0.180873,25
0.0804012,-3.48927,0.805775,16
0.0793189,-3.46857,-0.0605599,28
0.0786285,-3.46485,0.928643,22
0.0663506,-3.09025,-0.828221,1
0.0734867,-3.45069,0.0602457,32
0.0725087,-3.43291,-0.792728,40
0.0723619,-3.4545,0.181082,40
0.0727334,-3.47224,-0.675082,50
0.0719974,-3.46601,0.303302,43
0.071027,-3.44828,-0.546269,36
0.0705288,-3.45334,0.424105,50
0.0698453,-3.44938,-0.423618,34
0.069618,-3.46806,0.549398,46
0.0693379,-3.45411,-0.302256,40
0.0689013,-3.4625,0.673174,50
0.0679837,-3.4466,-0.180664,35
0.068145,-3.48563,0.804875,52
0.0674815,-3.48282,-0.0608042,50
0.0662737,-3.45158,0.925019,40
0.0615126,-3.45493,0.0603155,39
0.0609033,-3.45458,-0.797676,56
0.0601631,-3.44674,0.180664,50
0.0602694,-3.45284,-0.671266,41
0.0601396,-3.48019,0.304522,50
0.0592942,-3.46628,-0.549085,49
0.0584062,-3.4496,0.423618,42
0.0576711,-3.44167,-0.422643,40
0.057479,-3.46631,0.549085,35
0.0573464,-3.45831,-0.302605,45
0.0568149,-3.46271,0.673174,45
0.0560171,-3.45081,-0.180873,36
0.0555393,-3.45857,0.798576,45
0.05507,-3.46703,-0.0605249,44
0.0544075,-3.46338,0.928125,46
0.0495666,-3.46312,0.0604551,33
0.0487064,-3.44503,-0.795427,51
0.0482153,-3.45292,0.180978,37
0.0481345,-3.44714,-0.670121,28
0.0479082,-3.4744,0.303999,33
0.0470055,-3.45264,-0.546895,30
0.0465783,-3.46566,0.425568,34
0.045815,-3.45376,-0.424105,28
0.045353,-3.46451,0.548772,28
0.0452481,-3.4565,-0.30243,29
0.0449052,-3.47663,0.675846,31
0.0441747,-3.46696,-0.18171,26
0.0435397,-3.46459,0.799926,30
0.0428683,-3.45921,-0.0603853,24
0.0422468,-3.45776,0.926572,29
0.0374128,-3.45727,0.0603504,23
0.0368881,-3.46466,-0.799926,51
0.0362661,-3.46306,0.181501,26
0.0361832,-3.45514,-0.671648,22
0.0356983,-3.46657,0.303302,22
0.0350936,-3.46661,-0.549085,23
0.0345985,-3.47771,0.42703,23
0.0338562,-3.46382,-0.425324,24
0.0332786,-3.46663,0.549085,22
0.0331635,-3.45464,-0.302256,25
0.0327317,-3.47284,0.675082,27
0.0320539,-3.4651,-0.181606,22
0.0315168,-3.47251,0.801726,24
0.0308998,-3.47133,-0.0605948,24
0.0301597,-3.45595,0.926055,28
0.0253741,-3.46138,0.0604202,22
0.0247663,-3.46087,-0.799026,52
0.0242615,-3.47515,0.182129,26
0.0241637,-3.46113,-0.672793,17
0.0236381,-3.47265,0.303825,23
0.0229794,-3.46473,-0.548772,22
0.022472,-3.47979,0.427274,26
0.0217774,-3.4659,-0.425568,21
0.0212374,-3.4766,0.550649,20
0.0205841,-3.46869,-0.303476,23
0.020586,-3.46901,0.674319,23
0.0199816,-3.46918,-0.181815,20
0.0194601,-3.48429,0.804425,24
0.018826,-3.47942,-0.0607344,20
0.0181161,-3.4599,0.92709,23
0.0132986,-3.46345,0.0604551,21
0.0126921,-3.46289,-0.799476,55
0.0121382,-3.47721,0.182234,23
0.0115364,-3.47887,-0.676227,20
0.0109412,-3.48268,0.304696,22
0.0103042,-3.4727,-0.550024,22
0.0102901,-3.46794,0.425812,20
0.00970107,-3.4739,-0.426543,20
0.00912786,-3.48653,0.552214,18
0.00851486,-3.48468,-0.304871,22
0.00789354,-3.47888,0.676227,23
0.00725364,-3.46324,-0.181501,18
0.00670429,-3.49214,0.806225,23
0.00671835,-3.49946,-0.0610834,26
0.0060791,-3.48312,0.933302,23
0.000607857,-3.48147,0.0607693,18
-1.51709e-07,-3.47071,-0.801276,53
-1.5182e-07,-3.47323,0.182024,23
-0.000606196,-3.47496,-0.675464,17
-0.001223,-3.50461,0.306614,26
-0.00182352,-3.48259,-0.551588,21
-0.00243357,-3.48582,0.428005,27
-0.00303285,-3.4759,-0.426786,21
-0.00304041,-3.48456,0.551901,17
-0.00364909,-3.48469,-0.304871,22
-0.00426215,-3.4887,0.678135,26
-0.00484899,-3.47323,-0.182024,21
-0.00547608,-3.48629,0.804875,26
-0.00549363,-3.49746,-0.0610485,20
-0.00608573,-3.48699,0.934337,23
-0.0109498,-3.48545,0.0608391,19
-0.011535,-3.47848,-0.803075,53
-0.0121307,-3.47521,0.182129,22
-0.0127506,-3.47886,-0.676227,21
-0.0134645,-3.50658,0.306788,24
-0.0134103,-3.49244,-0.553152,24
-0.0139847,-3.48381,0.427761,26
-0.0145844,-3.48182,-0.427518,22
-0.0152129,-3.48651,0.552214,22
-0.0158307,-3.48864,-0.305219,22
-0.015911,-3.50634,0.68157,26
-0.016386,-3.47719,-0.182234,21
-0.0170562,-3.49015,0.805775,19
-0.0176819,-3.49342,-0.0609787,22
-0.0182576,-3.48694,0.934337,23
-0.0231827,-3.49539,0.0610136,16
-0.0237568,-3.49011,-0.805775,53
-0.024359,-3.48913,0.182862,20
-0.0243418,-3.48665,-0.677754,21
-0.0250782,-3.50452,0.306614,26
-0.0256297,-3.49632,-0.553778,24
-0.0263243,-3.50756,0.430686,27
-0.026784,-3.4877,-0.428249,22
-0.0274603,-3.49631,0.553778,20
-0.0274933,-3.50052,-0.306265,22
-0.0281035,-3.50037,0.680425,28
-0.0286547,-3.49309,-0.183071,20
-0.0293856,-3.50761,0.809824,22
-0.0299446,-3.50134,-0.0611183,24
-0.0303956,-3.483,0.933302,24
-0.0353024,-3.48729,0.060874,21
-0.0359592,-3.49196,-0.806225,52
-0.0365592,-3.49102,0.182967,20
-0.0366769,-3.50225,-0.680807,17
-0.0373748,-3.51039,0.307137,31
-0.037855,-3.49819,-0.554091,24
-0.0385679,-3.50745,0.430686,26
-0.0392022,-3.50942,-0.43093,20
-0.0398219,-3.51002,0.555968,22
-0.0397128,-3.5004,-0.306265,22
-0.040412,-3.5081,0.681951,26
-0.0408941,-3.49696,-0.183281,23
-0.0418379,-3.52502,0.813873,24
-0.0423346,-3.51521,-0.0613627,27
-0.0426475,-3.4906,0.935372,24
-0.0476385,-3.49914,0.0610834,16
-0.0479874,-3.48012,-0.803525,52
-0.048884,-3.50085,0.18349,24
-0.0488741,-3.50014,-0.680425,22
-0.0497686,-3.5202,0.308008,30
-0.0502076,-3.50791,-0.555655,25
-0.0507243,-3.50134,0.429955,23
-0.0513649,-3.50331,-0.430199,20
-0.052308,-3.52566,0.558471,18
-0.0521082,-3.5122,-0.307311,22
-0.0527459,-3.51383,0.683096,24
-0.0531309,-3.49879,-0.183385,19
-0.0540522,-3.51901,0.812523,22
-0.0547912,-3.52704,-0.0615721,27
-0.0551356,-3.50974,0.940548,23
-0.0600237,-3.50895,0.0612579,21
-0.0603367,-3.49162,-0.806225,52
-0.0610692,-3.49867,0.183385,22
-0.061263,-3.50976,-0.682333,20
-0.0623021,-3.53395,0.309229,28
-0.0625222,-3.51166,-0.556281,25
-0.0630892,-3.50908,0.43093,24
-0.0635575,-3.50113,-0.429955,22
-0.0645056,-3.51953,0.557532,16
-0.0644405,-3.51598,-0.30766,22
-0.0652654,-3.52736,0.685768,27
-0.0654557,-3.50458,-0.183699,22
-0.0662617,-3.5149,0.811623,20
-0.0671406,-3.52882,-0.061607,27
-0.0675346,-3.51725,0.942619,23
-0.072519,-3.52072,0.0614674,20
-0.0728479,-3.50698,-0.809824,52
-0.0734071,-3.50442,0.183699,23
-0.0733907,-3.50364,-0.681188,22
-0.0746376,-3.53371,0.309229,28
-0.0750748,-3.52525,-0.558471,24
-0.075721,-3.5267,0.433124,27
-0.0758639,-3.50485,-0.430443,25
-0.0766619,-3.51336,0.556594,16
-0.0768006,-3.51971,-0.308008,22
-0.0778365,-3.53889,0.688057,27
-0.0779095,-3.51431,-0.184223,20
-0.0788794,-3.53024,0.815223,22
-0.0794582,-3.52857,-0.061607,27
-0.079899,-3.52086,0.943654,24
-0.0847597,-3.51844,0.0614325,18
-0.0853732,-3.51839,-0.812523,51
-0.085981,-3.51812,0.184432,22
-0.0857643,-3.50925,-0.682333,21
-0.0869232,-3.53144,0.309054,30
-0.0874773,-3.52891,-0.559097,23
-0.0883283,-3.53832,0.434586,27
-0.0884968,-3.52044,-0.432392,23
-0.0893249,-3.52887,0.559097,18
-0.0891867,-3.52341,-0.308357,21
-0.0900891,-3.53467,0.687294,27
-0.090638,-3.53199,-0.185165,17
-0.0913021,-3.53384,0.816122,22
-0.0918784,-3.53227,-0.0616768,24
-0.0922397,-3.52249,0.944172,24
-0.0971512,-3.52212,0.0615023,17
-0.0975457,-3.51417,-0.811623,51
-0.098763,-3.53577,0.185374,23
-0.0985616,-3.52856,-0.686149,21
-0.0994736,-3.53908,0.309752,31
-0.0997388,-3.52661,-0.558784,23
-0.100453,-3.53005,0.433611,27
-0.10124,-3.53599,-0.434342,20
-0.101813,-3.53446,0.560035,20
-0.1016,-3.52706,-0.308706,22
-0.102541,-3.53826,0.688057,27
-0.10285,-3.52766,-0.184955,22
-0.104037,-3.54713,0.819272,20
-0.104798,-3.55191,-0.0620259,27
-0.104707,-3.52794,0.945725,25
-0.109445,-3.52176,0.0615023,17
-0.109691,-3.50992,-0.810724,52
-0.11123,-3.53939,0.185583,26
-0.111063,-3.53408,-0.687294,18
-0.11233,-3.55464,0.311146,26
-0.112237,-3.53217,-0.559723,23
-0.113028,-3.53761,0.434586,26
-0.113581,-3.53561,-0.434342,18
-0.11466,-3.54988,0.562538,21
-0.114426,-3.54261,-0.3101,23
-0.114955,-3.53984,0.688439,24
-0.115162,-3.52728,-0.184955,23
-0.116482,-3.54869,0.819722,22
-0.117525,-3.56152,-0.0622004,25
-0.117534,-3.543,0.949866,25
-0.122705,-3.54934,0.061991,18
-0.122212,-3.5173,-0.812523,51
-0.123305,-3.531,0.185165,23
-0.123535,-3.53759,-0.688057,18
-0.125087,-3.56418,0.312018,24
-0.124775,-3.53768,-0.560661,22
-0.125446,-3.53918,0.43483,23
-0.125852,-3.53321,-0.434099,22
-0.127051,-3.54945,0.562538,21
-0.127076,-3.55016,-0.310797,22
-0.127663,-3.54923,0.690347,24
-0.127908,-3.53883,-0.185583,24
-0.128868,-3.54827,0.819722,17
-0.129665,-3.55309,-0.0620608,27
-0.130112,-3.54836,0.951419,25
-0.135094,-3.54889,0.061991,20
-0.135085,-3.53243,-0.816122,51
-0.13586,-3.53653,0.185479,22
-0.135506,-3.52733,-0.686149,16
-0.137604,-3.56572,0.312192,23
-0.137429,-3.54511,-0.561913,22
-0.138417,-3.55459,0.43678,26
-0.138572,-3.54267,-0.435317,18
-0.13944,-3.54899,0.562538,20
-0.139624,-3.55367,-0.311146,22
-0.140826,-3.56838,0.694163,23
-0.140497,-3.54435,-0.185897,26
-0.141486,-3.55364,0.821071,16
-0.142067,-3.55262,-0.0620608,27
-0.142575,-3.54981,0.951936,23
-0.14773,-3.55439,0.0620957,20
-0.147902,-3.54362,-0.818822,49
-0.148873,-3.552,0.186316,22
-0.148476,-3.54253,-0.689202,17
-0.149798,-3.55924,0.311669,27
-0.150303,-3.55645,-0.56379,22
-0.151245,-3.564,0.437998,23
-0.151529,-3.55604,-0.437024,22
-0.151996,-3.55243,0.563164,16
-0.151517,-3.54122,-0.3101,23
-0.153281,-3.56787,0.694163,23
-0.153299,-3.55381,-0.186421,23
-0.154396,-3.5648,0.823771,16
-0.154901,-3.56209,-0.0622353,24
-0.15505,-3.55122,0.952454,21
-0.159956,-3.54986,0.0620259,20
-0.160359,-3.54503,-0.819272,47
-0.162086,-3.56942,0.187258,23
-0.161286,-3.55179,-0.69111,18
-0.163039,-3.57661,0.313238,26
-0.162445,-3.54999,-0.562851,19
-0.163776,-3.56544,0.438242,20
-0.164581,-3.56937,-0.43873,22
-0.165035,-3.56569,0.565354,18
-0.164614,-3.55659,-0.311495,22
-0.165552,-3.56339,0.6934,23
-0.165889,-3.55725,-0.18663,22
-0.167112,-3.57008,0.82512,17
-0.168085,-3.57751,-0.0625145,22
-0.167718,-3.55645,0.954007,21
-0.173026,-3.56326,0.0622702,18
-0.172448,-3.53861,-0.817922,43
-0.17474,-3.57282,0.187467,26
-0.174162,-3.56101,-0.693018,17
-0.176108,-3.58796,0.314284,26
-0.175225,-3.55729,-0.564103,21
-0.176123,-3.56286,0.437998,23
-0.17704,-3.56878,-0.43873,22
-0.17807,-3.57693,0.567231,17
-0.177821,-3.57192,-0.312889,22
-0.178283,-3.56867,0.694545,20
-0.178405,-3.55864,-0.186735,19
-0.180062,-3.57921,0.82737,16
-0.18037,-3.57291,-0.0624447,21
-0.18062,-3.56549,0.956595,21
-0.185878,-3.57062,0.0624098,17
-0.185307,-3.54772,-0.820172,34
-0.186583,-3.56022,0.186839,26
-0.186489,-3.55842,-0.692637,17
-0.188526,-3.58533,0.314109,24
-0.18785,-3.5606,-0.564728,18
-0.189083,-3.57214,0.439217,24
-0.189496,-3.56814,-0.43873,22
-0.19108,-3.58615,0.568796,21
-0.190712,-3.57923,-0.313586,22
-0.191473,-3.58175,0.697216,20
-0.191254,-3.56597,-0.187153,19
-0.192136,-3.57077,0.82557,20
-0.193595,-3.58623,-0.062689,22
-0.193483,-3.57255,0.958666,21
-0.198492,-3.58396,0.0626541,20
-0.197828,-3.5607,-0.823321,24
-0.198764,-3.57757,0.187781,26
-0.198179,-3.55583,-0.692255,17
-0.200971,-3.59463,0.314981,22
-0.201205,-3.58757,-0.569109,19
-0.201708,-3.58536,0.440923,23
-0.201551,-3.57145,-0.439217,23
-0.202345,-3.58553,0.568796,20
-0.20303,-3.58654,-0.314284,21
-0.204128,-3.59482,0.699887,22
-0.203873,-3.57928,-0.187886,23
-0.204643,-3.58179,0.82827,23
-0.204861,-3.58561,-0.062689,25
-0.204815,-3.57386,0.959183,22
-0.210376,-3.58328,0.0626541,21
-0.209863,-3.56392,-0.824221,25
-0.211369,-3.57884,0.187886,28
-0.211286,-3.56687,-0.694545,17
-0.213045,-3.58596,0.314284,23
-0.212983,-3.58491,-0.568796,24
-0.214423,-3.59855,0.442629,22
-0.214341,-3.58662,-0.441167,22
-0.215215,-3.59072,0.569734,17
-0.215189,-3.57984,-0.313761,20
-0.216048,-3.59412,0.699887,22
-0.216703,-3.59453,-0.188723,23
-0.217225,-3.59276,0.830969,23
-0.218223,-3.59884,-0.0629334,24
-0.217758,-3.58083,0.961254,23
-0.222883,-3.58253,0.0626541,25
-0.222545,-3.56705,-0.82512,20
-0.224982,-3.59602,0.188828,28
-0.223971,-3.57987,-0.697216,15
-0.225185,-3.58921,0.314632,22
-0.225123,-3.57823,-0.567857,21
-0.226358,-3.58787,0.441411,22
-0.227235,-3.59179,-0.441898,21
-0.228247,-3.59783,0.570986,17
-0.228696,-3.59497,-0.315155,24
-0.228468,-3.59139,0.699506,19
-0.228867,-3.58777,-0.188409,26
-0.230635,-3.6056,0.834118,22
-0.23104,-3.60205,-0.0630032,22
-0.231001,-3.59162,0.96436,24
-0.236042,-3.5917,0.0628287,22
-0.234738,-3.56237,-0.824221,17
-0.238192,-3.60518,0.189352,26
-0.238129,-3.59469,-0.700269,15
-0.239791,-3.61022,0.31655,22
-0.239024,-3.58921,-0.569734,21
-0.239408,-3.59498,0.442386,22
-0.240433,-3.60088,-0.443117,22
-0.241465,-3.60687,0.57255,16
-0.242178,-3.60807,-0.316375,22
-0.242289,-3.60032,0.701414,17
-0.241747,-3.58293,-0.1882,26
-0.244244,-3.61056,0.835468,20
-0.244422,-3.61319,-0.0632126,18
-0.244451,-3.60428,0.967983,21
-0.250036,-3.60278,0.0630381,20
-0.248199,-3.56731,-0.82557,11
-0.250431,-3.59034,0.188619,23
-0.250676,-3.59384,-0.700269,17
-0.253225,-3.62129,0.317596,22
-0.252242,-3.59821,-0.571299,23
-0.25314,-3.602,0.443361,22
-0.252931,-3.59007,-0.441898,21
-0.254961,-3.6099,0.573176,16
-0.255051,-3.61118,-0.316724,22
-0.255964,-3.61512,0.704467,17
-0.255807,-3.60397,-0.189352,26
-0.256569,-3.6058,0.834568,19
-0.257663,-3.61227,-0.0632126,21
-0.25766,-3.60336,0.967983,21
-0.263337,-3.61186,0.0632126,20
-0.260224,-3.5606,-0.824221,9
-0.263984,-3.60339,0.189352,26
-0.262788,-3.58707,-0.699124,16
-0.266302,-3.62635,0.318118,19
-0.265961,-3.61307,-0.573802,22
-0.266442,-3.61099,0.444579,20
-0.266925,-3.60897,-0.444336,21
-0.267561,-3.60899,0.573176,15
-0.26795,-3.61424,-0.317073,21
-0.269745,-3.62986,0.70752,16
-0.268979,-3.61103,-0.18977,26
-0.269879,-3.6146,0.836818,17
-0.269674,-3.60337,-0.063073,24
-0.270526,-3.60629,0.969019,21
-0.276553,-3.6189,0.0633522,20
-0.273991,-3.57715,-0.82827,8
-0.277152,-3.61842,0.190189,27
-0.27636,-3.59983,-0.701796,18
-0.278348,-3.61745,0.317421,24
-0.278875,-3.61605,-0.574427,22
-0.280269,-3.62587,0.446529,22
-0.279982,-3.61395,-0.445067,23
-0.280137,-3.61596,0.574427,16
-0.280256,-3.60931,-0.316724,22
-0.282719,-3.63282,0.708283,17
-0.282359,-3.62002,-0.190294,24
-0.283406,-3.62529,0.839517,20
-0.282869,-3.61841,-0.0633522,19
-0.282181,-3.60153,0.967983,20
-0.288393,-3.61597,0.0633173,22
-0.285386,-3.5704,-0.82692,8
-0.290259,-3.6234,0.190503,24
-0.289552,-3.60667,-0.703322,18
-0.291612,-3.6244,0.318118,17
-0.291023,-3.61708,-0.57474,23
-0.291972,-3.62097,0.446042,20
-0.292924,-3.62487,-0.446529,23
-0.293395,-3.62283,0.575679,17
-0.293014,-3.61029,-0.316898,21
-0.294447,-3.62794,0.70752,19
-0.29501,-3.62703,-0.190712,22
-0.296851,-3.64181,0.843566,24
-0.296963,-3.63534,-0.0636664,18
-0.295855,-3.614,0.971607,22
-0.301677,-3.62291,0.063457,23
-0.29574,-3.54413,-0.821071,7
-0.303738,-3.63232,0.191026,26
-0.303311,-3.62721,-0.70752,21
-0.304961,-3.6393,0.319513,24
-0.303812,-3.61801,-0.575053,20
-0.304443,-3.61795,0.445798,22
-0.306242,-3.63174,-0.447504,23
-0.30737,-3.63753,0.578182,21
-0.306662,-3.62915,-0.318641,20
-0.307771,-3.63472,0.709046,20
-0.307162,-3.62001,-0.190398,20
-0.309562,-3.64075,0.843566,23
-0.310499,-3.64424,-0.0638409,18
-0.310111,-3.63219,0.976783,23
-0.315186,-3.63179,0.0636315,20
-0.307941,-3.54114,-0.820621,6
-0.316068,-3.62726,0.190817,26
-0.315799,-3.62418,-0.707138,17
-0.318355,-3.64615,0.32021,26
-0.317301,-3.62677,-0.576617,21
-0.31863,-3.63466,0.447992,22
-0.31857,-3.62669,-0.447017,20
-0.320759,-3.64431,0.579433,17
-0.320551,-3.64196,-0.319862,19
-0.320802,-3.63753,0.70981,23
-0.321027,-3.63284,-0.191131,22
-0.322097,-3.63771,0.843117,20
-0.322865,-3.63915,-0.0637711,16
-0.323643,-3.64071,0.979371,22
-0.32948,-3.6486,0.0639456,22
-0.322232,-3.56139,-0.82557,5
-0.328635,-3.63216,0.191131,24
-0.328271,-3.6211,-0.706757,17
-0.332162,-3.65692,0.321256,26
-0.331391,-3.64137,-0.57912,23
-0.332578,-3.64736,0.449698,23
-0.332492,-3.6394,-0.448723,20
-0.331943,-3.63339,0.577869,18
-0.333262,-3.64081,-0.319862,19
-0.33547,-3.6579,0.714007,23
-0.334802,-3.64363,-0.191759,22
-0.336043,-3.65014,0.846266,24
-0.335847,-3.64802,-0.0639456,15
-0.336247,-3.64538,0.980924,21
-0.341578,-3.64748,0.0639456,23
-0.332948,-3.54866,-0.822871,4
-0.342993,-3.64889,0.192073,20
-0.341646,-3.62775,-0.708283,17
-0.344551,-3.65177,0.320907,26
-0.343835,-3.64419,-0.579746,21
-0.345419,-3.65415,0.450673,22
-0.346056,-3.65409,-0.450673,21
-0.346303,-3.64991,0.580685,16
-0.345969,-3.63963,-0.319862,19
-0.347227,-3.65286,0.713244,20
-0.347451,-3.64846,-0.192073,20
-0.349441,-3.66259,0.849415,22
-0.34896,-3.6508,-0.0640154,15
-0.348049,-3.63457,0.978336,21
-0.353727,-3.6403,0.0638409,21
-0.345521,-3.54942,-0.823321,3
-0.35631,-3.65363,0.192387,20
-0.355579,-3.64614,-0.712099,21
-0.358014,-3.66449,0.322128,23
-0.356554,-3.64297,-0.579746,21
-0.358172,-3.65292,0.450673,23
-0.358809,-3.65286,-0.450673,21
-0.359429,-3.65261,0.581311,17
-0.359844,-3.6503,-0.320907,18
-0.36036,-3.65553,0.714007,19
-0.36097,-3.65518,-0.192492,20
-0.363184,-3.67104,0.851665,20
-0.362293,-3.65553,-0.0641201,16
-0.362642,-3.65256,0.983512,23
-0.368035,-3.65496,0.0641201,21
-0.357714,-3.54625,-0.822871,3
-0.369061,-3.65236,0.192387,22
-0.369731,-3.65262,-0.713626,16
-0.372248,-3.67108,0.322825,23
-0.370901,-3.65146,-0.581311,23
-0.37092,-3.65165,0.450673,23
-0.37196,-3.65553,-0.45116,21
-0.373979,-3.66902,0.584126,17
-0.373393,-3.65695,-0.321605,16
-0.374555,-3.662,0.715534,19
-0.374975,-3.65979,-0.192806,16
-0.377233,-3.6755,0.853014,20
-0.377093,-3.67414,-0.0644692,16
-0.376378,-3.66088,0.986101,23
-0.382259,-3.66154,0.0642598,20
-0.371115,-3.54879,-0.823771,3
-0.382016,-3.65304,0.192492,19
-0.383297,-3.65912,-0.715152,20
-0.386931,-3.68759,0.324394,24
-0.385091,-3.6639,-0.583501,21
-0.38638,-3.67,0.45311,23
-0.384522,-3.64625,-0.450185,21
-0.386577,-3.66573,0.583813,16
-0.387412,-3.66751,-0.322651,18
-0.388162,-3.66848,0.71706,20
-0.3888,-3.66839,-0.193329,19
-0.390061,-3.67416,0.853014,22
-0.389493,-3.66882,-0.0643994,18
-0.389972,-3.66723,0.988171,23
-0.396327,-3.67815,0.0645739,20
-0.382044,-3.53979,-0.821971,2
-0.395409,-3.65764,0.192806,22
-0.395856,-3.65581,-0.714771,18
-0.401089,-3.6981,0.32544,26
-0.39873,-3.67635,-0.585691,23
-0.39962,-3.67857,0.454329,20
-0.398974,-3.66666,-0.452866,18
-0.400013,-3.67025,0.584752,17
-0.399779,-3.66217,-0.322302,18
-0.402881,-3.69059,0.72164,17
-0.401831,-3.67502,-0.193748,17
-0.402879,-3.67866,0.854364,23
-0.402297,-3.66744,-0.0643994,18
-0.404036,-3.67737,0.991277,22
-0.408721,-3.67277,0.0645041,20
-0.393319,-3.52875,-0.819722,2
-0.409504,-3.66815,0.193434,20
-0.409937,-3.67203,-0.718205,21
-0.412465,-3.68883,0.324742,26
-0.41178,-3.67689,-0.586004,23
-0.413786,-3.68899,0.455791,22
-0.4131,-3.67708,-0.454329,18
-0.413484,-3.67472,0.585691,17
-0.411699,-3.65885,-0.322128,20
-0.415981,-3.69111,0.722021,17
-0.415777,-3.68352,-0.194271,17
-0.41725,-3.69079,0.857513,22
-0.416222,-3.67595,-0.0645739,16
-0.416217,-3.67018,0.989724,24
-0.422223,-3.67728,0.0646088,20
-0.406747,-3.53704,-0.821971,2
-0.42322,-3.67463,0.193852,22
-0.423652,-3.67838,-0.719732,21
-0.426709,-3.69925,0.325788,26
-0.424839,-3.6774,-0.586316,20
-0.426661,-3.68752,0.455791,16
-0.42639,-3.67956,-0.454816,17
-0.428586,-3.69287,0.588819,16
-0.426075,-3.67124,-0.323348,19
-0.428637,-3.68769,0.72164,20
-0.429325,-3.688,-0.194585,19
-0.431034,-3.69705,0.859313,17
-0.430674,-3.68838,-0.0648182,16
-0.430148,-3.67829,0.992312,24
-0.435292,-3.67777,0.0646437,20
