# .PCD v.7 - Point Cloud Data file format
VERSION .7
FIELDS x y z intensity normals observationDirections
SIZE 4 4 4 4 4 4
TYPE F F F F F F
COUNT 1 1 1 1 3 3
WIDTH 547
HEIGHT 1
POINTS 547
DATA ascii
5.92564 0.483012 0.520145 21 -0.991434 -0.125073 -0.0376123 -5.92564 -0.483012 -0.520145
4.82374 0.392345 -0.766529 7 0.100983 0.0151266 0.994773 -4.82374 -0.392345 0.766529
5.90806 0.479504 0.727804 21 -0.991434 -0.125073 -0.0376123 -5.90806 -0.479504 -0.727804
5.92001 0.479434 -0.729266 21 -0.959083 -0.282371 -0.0206377 -5.92001 -0.479434 0.729266
5.90688 0.47733 0.938607 17 -0.991434 -0.125073 -0.0376123 -5.90688 -0.47733 -0.938607
5.91376 0.47685 1.15325 19 -0.413492 0.906391 0.0864898 -5.91376 -0.47685 -1.15325
5.97548 0.477628 1.60623 9 -0.428355 0.903608 -0.00196094 -5.97548 -0.477628 -1.60623
2.90233 0.228418 -0.780081 8 -0.278077 -0.0177522 -0.960395 -2.90233 -0.228418 0.780081
5.91887 0.464788 0.103632 19 -0.917362 -0.398019 0.00520582 -5.91887 -0.464788 -0.103632
3.34548 0.262121 -0.774731 6 0.21655 0.00993184 0.976221 -3.34548 -0.262121 0.774731
5.9178 0.462623 0.311085 23 -0.917362 -0.398019 0.00520582 -5.9178 -0.462623 -0.311085
5.92331 0.462017 0.519797 18 -0.991434 -0.125073 -0.0376123 -5.92331 -0.462017 -0.519797
4.82311 0.375354 -0.766216 6 0.100983 0.0151266 0.994773 -4.82311 -0.375354 0.766216
5.91441 0.457169 0.939546 17 -0.937629 -0.346086 -0.0328042 -5.91441 -0.457169 -0.939546
5.91768 0.457421 -0.519274 25 -0.969725 -0.243376 0.0200326 -5.91768 -0.457421 0.519274
5.92518 0.456957 1.15516 20 -0.413492 0.906391 0.0864898 -5.92518 -0.456957 -1.15516
5.93399 0.455557 1.374 17 -0.845143 -0.533722 0.0295498 -5.93399 -0.455557 -1.374
5.90776 0.451466 1.5876 23 -0.428355 0.903608 -0.00196094 -5.90776 -0.451466 -1.5876
2.90696 0.218577 -0.781116 8 -0.278077 -0.0177522 -0.960395 -2.90696 -0.218577 0.781116
5.91647 0.443824 0.103563 17 -0.917362 -0.398019 0.00520582 -5.91647 -0.443824 -0.103563
3.33471 0.249568 -0.772032 6 0.210029 0.00924292 0.977651 -3.33471 -0.249568 0.772032
3.99392 0.298204 -0.778501 4 -0.19154 -0.0149638 -0.981371 -3.99392 -0.298204 0.778501
5.93106 0.439714 0.730241 21 -0.937629 -0.346086 -0.0328042 -5.93106 -0.439714 -0.730241
5.93386 0.435756 -0.311818 21 -0.969725 -0.243376 0.0200326 -5.93386 -0.435756 0.311818
5.95304 0.43612 1.37805 46 -0.845143 -0.533722 0.0295498 -5.95304 -0.43612 -1.37805
5.94317 0.435397 -0.104016 17 -0.017723 -0.00120738 -0.999842 -5.94317 -0.435397 0.104016
5.92988 0.425061 0.103772 19 -0.908927 -0.416636 -0.0163436 -5.92988 -0.425061 -0.103772
3.33163 0.238229 -0.771132 6 0.210029 0.00924292 0.977651 -3.33163 -0.238229 0.771132
5.93675 0.42347 0.311922 25 -0.908927 -0.416636 -0.0163436 -5.93675 -0.42347 -0.311922
5.94826 0.422202 0.521714 16 -0.937629 -0.346086 -0.0328042 -5.94826 -0.422202 -0.521714
5.9305 0.419904 0.729997 21 -0.937629 -0.346086 -0.0328042 -5.9305 -0.419904 -0.729997
5.95236 0.420408 -0.732679 21 -0.914645 -0.403548 -0.023929 -5.95236 -0.420408 0.732679
5.93726 0.416217 -0.311922 23 -0.969725 -0.243376 0.0200326 -5.93726 -0.416217 0.311922
5.95056 0.416103 1.37715 24 -0.845143 -0.533722 0.0295498 -5.95056 -0.416103 -1.37715
5.95263 0.415207 -0.104156 17 -0.017723 -0.00120738 -0.999842 -5.95263 -0.415207 0.104156
2.91994 0.199574 -0.784222 7 -0.265249 -0.0141145 -0.964077 -2.91994 -0.199574 0.784222
5.93931 0.404901 0.103912 17 -0.908927 -0.416636 -0.0163436 -5.93931 -0.404901 -0.103912
5.93819 0.402743 0.311922 25 -0.908927 -0.416636 -0.0163436 -5.93819 -0.402743 -0.311922
4.81687 0.325003 -0.764652 5 0.141118 0.0115807 0.989925 -4.81687 -0.325003 0.764652
5.93986 0.399732 0.730972 19 -0.979622 -0.199289 -0.0249981 -5.93986 -0.399732 -0.730972
5.96217 0.399143 0.946429 16 -0.845143 -0.533722 0.0295498 -5.96217 -0.399143 -0.946429
5.94916 0.397229 1.15897 20 -0.845143 -0.533722 0.0295498 -5.94916 -0.397229 -1.15897
5.9442 0.394814 1.37535 20 -0.88565 -0.464252 0.00969731 -5.9442 -0.394814 -1.37535
5.95404 0.394424 -0.104156 17 -0.017723 -0.00120738 -0.999842 -5.95404 -0.394424 0.104156
5.94873 0.393029 1.59743 23 0.256649 0.0154425 -0.966381 -5.94873 -0.393029 -1.59743
2.91294 0.188372 -0.782151 7 -0.265249 -0.0141145 -0.964077 -2.91294 -0.188372 0.782151
5.95665 0.385201 0.104191 17 -0.908927 -0.416636 -0.0163436 -5.95665 -0.385201 -0.104191
5.94355 0.38227 0.312132 25 -0.908927 -0.416636 -0.0163436 -5.94355 -0.38227 -0.312132
3.98311 0.255483 -0.775829 4 0.18793 0.00856395 0.982145 -3.98311 -0.255483 0.775829
4.8338 0.308351 -0.767155 4 0.100983 0.0151266 0.994773 -4.8338 -0.308351 0.767155
5.96307 0.379346 -0.733654 23 -0.891521 -0.451068 -0.0415758 -5.96307 -0.379346 0.733654
5.95564 0.37783 0.945177 16 -0.979622 -0.199289 -0.0249981 -5.95564 -0.37783 -0.945177
5.95538 0.373637 -0.104156 17 -0.017723 -0.00120738 -0.999842 -5.95538 -0.373637 0.104156
2.90201 0.177495 -0.779045 7 -0.278077 -0.0177522 -0.960395 -2.90201 -0.177495 0.779045
3.99378 0.242171 -0.777737 4 0.18793 0.00856395 0.982145 -3.99378 -0.242171 0.777737
5.96093 0.356233 0.945803 16 -0.88565 -0.464252 0.00969731 -5.96093 -0.356233 -0.945803
5.96056 0.356211 -0.522412 25 -0.973044 -0.230617 -0.00142509 -5.96056 -0.356211 0.522412
5.9832 0.356516 1.16508 16 -0.969939 -0.243136 0.0102056 -5.9832 -0.356516 -1.16508
3.35412 0.192224 -0.775631 6 0.21655 0.00993184 0.976221 -3.35412 -0.192224 0.775631
3.99068 0.228005 -0.776974 4 0.18793 0.00856395 0.982145 -3.99068 -0.228005 0.776974
5.99338 0.338232 -0.737066 21 -0.891521 -0.451068 -0.0415758 -5.99338 -0.338232 0.737066
5.97594 0.336201 0.947993 15 -0.88565 -0.464252 0.00969731 -5.97594 -0.336201 -0.947993
5.9737 0.336075 -0.523457 26 -0.973044 -0.230617 -0.00142509 -5.9737 -0.336075 0.523457
5.99477 0.334109 1.38615 24 -0.969939 -0.243136 0.0102056 -5.99477 -0.334109 -1.38615
5.96415 0.330317 1.60054 25 0.256649 0.0154425 -0.966381 -5.96415 -0.330317 -1.60054
2.91861 0.158066 -0.783186 8 -0.265249 -0.0141145 -0.964077 -2.91861 -0.158066 0.783186
5.97838 0.322731 0.104505 19 -0.923805 -0.382854 0.00287469 -5.97838 -0.322731 -0.104505
5.97663 0.317406 0.734872 19 -0.929932 -0.365683 -0.0387691 -5.97663 -0.317406 -0.734872
5.99075 0.316062 -0.524852 23 -0.891521 -0.451068 -0.0415758 -5.99075 -0.316062 0.524852
5.97966 0.314427 1.16393 17 -0.969939 -0.243136 0.0102056 -5.97966 -0.314427 -1.16393
5.97559 0.313167 -0.313597 21 -0.973044 -0.230617 -0.00142509 -5.97559 -0.313167 0.313597
5.99345 0.302567 0.104749 19 -0.923805 -0.382854 0.00287469 -5.99345 -0.302567 -0.104749
3.33592 0.167824 -0.771132 6 0.210029 0.00924292 0.977651 -3.33592 -0.167824 0.771132
4.8258 0.240243 -0.765278 4 -0.01894 -0.00121252 0.99982 -4.8258 -0.240243 0.765278
5.98762 0.297035 0.736091 21 -0.929932 -0.365683 -0.0387691 -5.98762 -0.297035 -0.736091
6.00551 0.296872 -0.738285 19 -0.891521 -0.451068 -0.0415758 -6.00551 -0.296872 0.738285
5.99985 0.295542 0.951435 16 -0.969939 -0.243136 0.0102056 -5.99985 -0.295542 -0.951435
5.99779 0.295441 -0.525375 28 -0.891521 -0.451068 -0.0415758 -5.99779 -0.295441 0.525375
5.99837 0.294417 1.16737 20 -0.969939 -0.243136 0.0102056 -5.99837 -0.294417 -1.16737
6.00801 0.291737 -0.104994 17 -0.990934 -0.134111 -0.00794765 -6.00801 -0.291737 0.104994
4.00069 0.18657 -0.778501 4 -0.199497 -0.00396459 -0.97989 -4.00069 -0.18657 0.778501
6.00655 0.279059 0.526072 16 -0.908056 -0.41879 0.00699891 -6.00655 -0.279059 -0.526072
6.00646 0.276956 0.738285 19 -0.908056 -0.41879 0.00699891 -6.00646 -0.276956 -0.738285
5.99689 0.274415 0.950809 16 -0.908056 -0.41879 0.00699891 -5.99689 -0.274415 -0.950809
6.01702 0.274286 1.1708 17 -0.908056 -0.41879 0.00699891 -6.01702 -0.274286 -1.1708
6.00767 0.271756 1.3884 24 -0.910028 -0.414052 -0.0202325 -6.00767 -0.271756 -1.3884
6.00009 0.269314 1.60934 25 -0.910028 -0.414052 -0.0202325 -6.00009 -0.269314 -1.60934
2.91239 0.127158 -0.781116 8 -0.278077 -0.0177522 -0.960395 -2.91239 -0.127158 0.781116
3.34869 0.145036 -0.773832 6 0.21655 0.00993184 0.976221 -3.34869 -0.145036 0.773832
6.00749 0.258094 0.526072 15 -0.908056 -0.41879 0.00699891 -6.00749 -0.258094 -0.526072
6.01929 0.256494 0.739747 15 -0.908056 -0.41879 0.00699891 -6.01929 -0.256494 -0.739747
6.01163 0.254065 0.952999 15 -0.908056 -0.41879 0.00699891 -6.01163 -0.254065 -0.952999
6.0017 0.253645 -0.525549 27 -0.911822 -0.409711 -0.0267807 -6.0017 -0.253645 0.525549
6.01845 0.252246 -0.315691 23 -0.911822 -0.409711 -0.0267807 -6.01845 -0.252246 0.315691
6.01832 0.251191 1.39065 26 -0.910028 -0.414052 -0.0202325 -6.01832 -0.251191 -1.39065
6.02188 0.250287 -0.105203 17 -0.956794 -0.290741 0.00392568 -6.02188 -0.250287 0.105203
6.00485 0.248526 1.61037 26 -0.910028 -0.414052 -0.0202325 -6.00485 -0.248526 -1.61037
2.91668 0.117147 -0.782151 7 -0.265249 -0.0141145 -0.964077 -2.91668 -0.117147 0.782151
6.01228 0.240429 0.105029 17 -0.990934 -0.134111 -0.00794765 -6.01228 -0.240429 -0.105029
3.9862 0.158013 -0.775448 4 0.18793 0.00856395 0.982145 -3.9862 -0.158013 0.775448
6.02015 0.235482 0.739747 17 -0.927749 -0.372869 -0.0158647 -6.02015 -0.235482 -0.739747
6.04598 0.235436 -0.742916 23 -0.941875 -0.330087 -0.0625723 -6.04598 -0.235436 0.742916
6.01847 0.23331 -0.526944 27 -0.911822 -0.409711 -0.0267807 -6.01847 -0.23331 0.526944
6.02129 0.231317 -0.315795 19 -0.941875 -0.330087 -0.0625723 -6.02129 -0.231317 0.315795
6.02268 0.230315 -0.105203 17 -0.956794 -0.290741 0.00392568 -6.02268 -0.230315 0.105203
6.02108 0.229204 1.61451 26 -0.910028 -0.414052 -0.0202325 -6.02108 -0.229204 -1.61451
6.04299 0.217362 0.529035 16 -0.927749 -0.372869 -0.0158647 -6.04299 -0.217362 -0.529035
4.81878 0.173328 -0.763713 3 -0.0724678 -0.000386387 0.997371 -4.81878 -0.173328 0.763713
6.03691 0.213979 0.956753 15 -0.927749 -0.372869 -0.0158647 -6.03691 -0.213979 -0.956753
6.03319 0.212796 -0.528164 23 -0.941875 -0.330087 -0.0625723 -6.03319 -0.212796 0.528164
6.03326 0.212798 1.17348 19 -0.957677 -0.287843 -0.000999158 -6.03326 -0.212798 -1.17348
6.02402 0.211417 -0.3159 23 -0.941875 -0.330087 -0.0625723 -6.02402 -0.211417 0.3159
6.02957 0.208451 1.61658 25 -0.957677 -0.287843 -0.000999158 -6.02957 -0.208451 -1.61658
6.03976 0.200358 0.105482 15 -0.956794 -0.290741 0.00392568 -6.03976 -0.200358 -0.105482
6.03247 0.198011 0.316319 23 -0.956794 -0.290741 0.00392568 -6.03247 -0.198011 -0.316319
4.00092 0.131327 -0.778119 4 -0.199497 -0.00396459 -0.97989 -4.00092 -0.131327 0.778119
6.05762 0.197775 0.530255 16 -0.972422 -0.231786 -0.0258906 -6.05762 -0.197775 -0.530255
6.04396 0.189941 1.39605 24 -0.890332 -0.454324 -0.0299746 -6.04396 -0.189941 -1.39605
2.92931 0.0874529 -0.785257 8 -0.273968 -0.00697615 -0.961713 -2.92931 -0.0874529 0.785257
6.05441 0.179693 0.105727 19 -0.933057 -0.359583 -0.0102322 -6.05441 -0.179693 -0.105727
3.35427 0.0989663 -0.774731 6 0.21655 0.00993184 0.976221 -3.35427 -0.0989663 0.774731
6.05827 0.176633 0.530255 15 -0.972422 -0.231786 -0.0258906 -6.05827 -0.176633 -0.530255
6.04848 0.16895 1.39695 20 -0.890332 -0.454324 -0.0299746 -6.04848 -0.16895 -1.39695
6.05674 0.168123 -0.105762 17 -0.933057 -0.359583 -0.0102322 -6.05674 -0.168123 0.105762
6.04826 0.166831 1.62124 23 -0.890332 -0.454324 -0.0299746 -6.04826 -0.166831 -1.62124
6.063 0.158766 0.105866 17 -0.933057 -0.359583 -0.0102322 -6.063 -0.158766 -0.105866
6.05885 0.155483 0.530255 15 -0.972422 -0.231786 -0.0258906 -6.05885 -0.155483 -0.530255
4.84403 0.123462 -0.767468 3 0.0375688 -0.00275127 0.99929 -4.84403 -0.123462 0.767468
6.08437 0.15295 -0.747303 23 -0.932864 -0.3554 -0.0587822 -6.08437 -0.15295 0.747303
6.05262 0.152152 0.958943 16 -0.905339 -0.424384 -0.0161294 -6.05262 -0.152152 -0.958943
6.05498 0.151154 -0.529907 22 -0.932864 -0.3554 -0.0587822 -6.05498 -0.151154 0.529907
6.07441 0.150578 1.18111 16 -0.890332 -0.454324 -0.0299746 -6.07441 -0.150578 -1.18111
6.07981 0.149651 -0.318726 23 -0.913853 -0.405944 0.0090888 -6.07981 -0.149651 0.318726
6.06726 0.148279 -0.105936 17 -0.900793 -0.434236 0.0033995 -6.06726 -0.148279 0.105936
6.0565 0.146962 1.62331 23 -0.882246 -0.470519 -0.0159276 -6.0565 -0.146962 -1.62331
2.92599 0.0669106 -0.784222 8 -0.0178359 -0.00466899 0.99983 -2.92599 -0.0669106 0.784222
3.35097 0.0760454 -0.773832 6 0.119219 0.00121786 0.992867 -3.35097 -0.0760454 0.773832
4.00993 0.0895972 -0.779646 4 0.154873 -0.00153454 0.987933 -4.00993 -0.0895972 0.779646
6.06144 0.130144 -0.53043 21 -0.913853 -0.405944 0.0090888 -6.06144 -0.130144 0.53043
6.07291 0.13039 1.18073 17 -0.882246 -0.470519 -0.0159276 -6.07291 -0.13039 -1.18073
6.07628 0.129402 -0.318517 23 -0.913853 -0.405944 0.0090888 -6.07628 -0.129402 0.318517
6.07871 0.128395 1.40369 20 -0.882246 -0.470519 -0.0159276 -6.07871 -0.128395 -1.40369
6.07774 0.12731 -0.106111 17 -0.900793 -0.434236 0.0033995 -6.07774 -0.12731 0.106111
6.06471 0.125979 1.62538 25 -0.882246 -0.470519 -0.0159276 -6.06471 -0.125979 -1.62538
2.93006 0.0572834 -0.785257 8 -0.273968 -0.00697615 -0.961713 -2.93006 -0.0572834 0.785257
4.01413 0.0763748 -0.780409 4 0.154873 -0.00153454 0.987933 -4.01413 -0.0763748 0.780409
6.06739 0.112263 0.745109 15 -0.905339 -0.424384 -0.0161294 -6.06739 -0.112263 -0.745109
6.09303 0.11061 0.965201 16 -0.938254 -0.345444 -0.0186309 -6.09303 -0.11061 -0.965201
6.08815 0.10627 -0.106285 17 -0.900793 -0.434236 0.0033995 -6.08815 -0.10627 0.106285
2.93025 0.0465445 -0.785257 7 -0.273968 -0.00697615 -0.961713 -2.93025 -0.0465445 0.785257
3.34363 0.0525253 -0.772032 6 0.210029 0.00924292 0.977651 -3.34363 -0.0525253 0.772032
6.08891 0.0945912 0.319145 19 -0.878127 -0.47822 0.0141224 -6.08891 -0.0945912 -0.319145
4.00653 0.0615401 -0.778882 5 -0.199497 -0.00396459 -0.97989 -4.00653 -0.0615401 0.778882
6.10398 0.0926913 0.53409 16 -0.911093 -0.409091 -0.050537 -6.10398 -0.0926913 -0.53409
6.10944 0.0906413 -0.750228 21 -0.124312 -0.0022551 -0.992241 -6.10944 -0.0906413 0.750228
6.10313 0.0873517 1.18645 20 -0.943166 -0.318668 -0.0942829 -6.10313 -0.0873517 -1.18645
6.09103 0.0861152 -0.319249 19 -0.913853 -0.405944 0.0090888 -6.09103 -0.0861152 0.319249
6.11061 0.0746592 0.106669 15 -0.852128 -0.520532 0.0540764 -6.11061 -0.0746592 -0.106669
6.1012 0.0724172 0.319773 19 -0.878127 -0.47822 0.0141224 -6.1012 -0.0724172 -0.319773
6.10377 0.0692486 0.749497 17 -0.911093 -0.409091 -0.050537 -6.10377 -0.0692486 -0.749497
6.09727 0.0638537 1.40774 19 -0.943166 -0.318668 -0.0942829 -6.09727 -0.0638537 -1.40774
6.10075 0.0628253 -0.106495 15 -0.852128 -0.520532 0.0540764 -6.10075 -0.0628253 0.106495
6.10627 0.0618164 1.63625 22 -0.974025 -0.221729 -0.0459537 -6.10627 -0.0618164 -1.63625
6.11883 0.0533969 0.106809 15 -0.852128 -0.520532 0.0540764 -6.11883 -0.0533969 -0.106809
3.35951 0.0287325 -0.775631 6 -0.230899 0.00208267 -0.972976 -3.35951 -0.0287325 0.775631
6.11739 0.0512518 0.32061 21 -0.878127 -0.47822 0.0141224 -6.11739 -0.0512518 -0.32061
3.99705 0.0334875 -0.776974 5 -0.022329 -0.0109128 0.999691 -3.99705 -0.0334875 0.776974
6.12041 0.050206 0.535485 16 -0.911093 -0.409091 -0.050537 -6.12041 -0.050206 -0.535485
4.82174 0.0387137 -0.763713 3 0.0999703 4.20756e-05 0.99499 -4.82174 -0.0387137 0.763713
6.10794 0.0479745 0.749984 21 -0.911093 -0.409091 -0.050537 -6.10794 -0.0479745 -0.749984
6.10849 0.0458466 -0.534439 22 -0.877127 -0.478911 0.0359563 -6.10849 -0.0458466 0.534439
6.12912 0.0449316 1.19141 19 -0.943166 -0.318668 -0.0942829 -6.12912 -0.0449316 -1.19141
6.12743 0.0438469 -0.321133 19 -0.877127 -0.478911 0.0359563 -6.12743 -0.0438469 0.321133
6.11093 0.0415987 -0.106669 17 -0.852128 -0.520532 0.0540764 -6.11093 -0.0415987 0.106669
6.10645 0.0404995 1.63625 21 -0.974025 -0.221729 -0.0459537 -6.10645 -0.0404995 -1.63625
6.12298 0.032063 0.106879 14 -0.878127 -0.47822 0.0141224 -6.12298 -0.032063 -0.106879
4.01284 0.0196106 -0.780027 4 0.154873 -0.00153454 0.987933 -4.01284 -0.0196106 0.780027
6.12792 0.0267385 0.752421 17 -0.938254 -0.345444 -0.0186309 -6.12792 -0.0267385 -0.752421
6.12138 0.023505 1.18988 19 -0.943166 -0.318668 -0.0942829 -6.12138 -0.023505 -1.18988
6.13154 0.0224768 -0.321343 19 -0.877127 -0.478911 0.0359563 -6.13154 -0.0224768 0.321343
6.12875 0.021394 1.41494 20 -0.974025 -0.221729 -0.0459537 -6.12875 -0.021394 -1.41494
2.92675 0.00561951 -0.784222 7 -0.0181288 -0.0122161 0.999761 -2.92675 -0.00561951 0.784222
6.13106 0.0107019 0.107018 14 -0.878127 -0.47822 0.0141224 -6.13106 -0.0107019 -0.107018
4.01681 0.00560941 -0.78079 4 0.14791 -0.0051472 0.988987 -4.01681 -0.00560941 0.78079
6.14253 0.00750592 0.537402 16 -0.911093 -0.409091 -0.050537 -6.14253 -0.00750592 -0.537402
6.12798 0.0053492 0.752421 19 -0.938254 -0.345444 -0.0186309 -6.12798 -0.0053492 -0.752421
6.13558 0.00107265 -0.321552 19 -0.896587 -0.440397 -0.0467053 -6.13558 -0.00107265 0.321552
6.13907 -0.00107147 -0.107158 17 -0.962478 -0.27125 0.00777301 -6.13907 0.00107147 0.107158
6.12783 -0.00213902 1.64195 23 -0.91619 -0.393239 -0.0771899 -6.12783 0.00213902 -1.64195
2.94607 -0.00462768 -0.789398 7 -0.264685 0.00677979 -0.964311 -2.94607 0.00462768 0.789398
4.0227 -0.00842513 -0.781935 4 0.14791 -0.0051472 0.988987 -4.0227 0.00842513 0.781935
6.15248 -0.0139596 0.538274 15 -0.868161 -0.493699 -0.0505767 -6.15248 0.0139596 -0.538274
6.1359 -0.0160638 0.753396 19 -0.868161 -0.493699 -0.0505767 -6.1359 0.0160638 -0.753396
6.15845 -0.0182725 -0.538797 21 -0.896587 -0.440397 -0.0467053 -6.15845 0.0182725 0.538797
6.15477 -0.0193359 1.19637 16 -0.892157 -0.446629 -0.067661 -6.15477 0.0193359 -1.19637
6.13265 -0.0214071 1.41584 24 -0.892157 -0.446629 -0.067661 -6.13265 0.0214071 -1.41584
6.15302 -0.0225521 -0.107402 14 -0.962478 -0.27125 0.00777301 -6.15302 0.0225521 0.107402
6.14517 -0.0235959 1.64661 22 -0.91619 -0.393239 -0.0771899 -6.14517 0.0235959 -1.64661
2.94217 -0.0148918 -0.788363 7 -0.264685 0.00677979 -0.964311 -2.94217 0.0148918 0.788363
3.35178 -0.0181351 -0.773832 6 -0.230899 0.00208267 -0.972976 -3.35178 0.0181351 0.773832
4.00498 -0.0223682 -0.778501 4 -0.199497 -0.00396459 -0.97989 -4.00498 0.0223682 0.778501
6.15515 -0.0397488 0.9749 15 -0.917872 -0.396867 0.00266053 -6.15515 0.0397488 -0.9749
6.15202 -0.0429499 1.42034 20 -0.892157 -0.446629 -0.067661 -6.15202 0.0429499 -1.42034
2.92665 -0.0250296 -0.784222 7 -0.0181288 -0.0122161 0.999761 -2.92665 0.0250296 0.784222
6.16683 -0.0538171 0.107646 15 -0.899143 -0.43704 -0.0231761 -6.16683 0.0538171 -0.107646
6.16329 -0.0559378 0.323018 21 -0.899143 -0.43704 -0.0231761 -6.16329 0.0559378 -0.323018
4.00095 -0.0363124 -0.777737 4 -0.022329 -0.0109128 0.999691 -4.00095 0.0363124 0.777737
6.17415 -0.057114 0.540191 16 -0.868161 -0.493699 -0.0505767 -6.17415 0.057114 -0.540191
4.82958 -0.0455191 -0.764965 3 -0.157677 -0.0026688 -0.987487 -4.82958 0.0455191 0.764965
6.17137 -0.0592427 0.757784 17 -0.868161 -0.493699 -0.0505767 -6.17137 0.0592427 -0.757784
6.18922 -0.0604944 -0.759977 20 -0.849616 -0.526354 -0.0332284 -6.18922 0.0604944 0.759977
6.1609 -0.0612929 0.975838 17 -0.917872 -0.396867 0.00266053 -6.1609 0.0612929 -0.975838
6.16415 -0.0613253 -0.53932 23 -0.849616 -0.526354 -0.0332284 -6.16415 0.0613253 0.53932
6.18197 -0.0625817 1.20172 17 -0.892157 -0.446629 -0.067661 -6.18197 0.0625817 -1.20172
6.16471 -0.0656351 -0.107612 14 -0.962478 -0.27125 0.00777301 -6.16471 0.0656351 0.107612
6.1586 -0.0752453 0.107507 14 -0.962478 -0.27125 0.00777301 -6.1586 0.0752453 -0.107507
6.17903 -0.0776521 0.323855 21 -0.899143 -0.43704 -0.0231761 -6.17903 0.0776521 -0.323855
6.18699 -0.0820721 -0.759734 18 -0.849616 -0.526354 -0.0332284 -6.18699 0.0820721 0.759734
6.18435 -0.0831167 0.979593 15 -0.917872 -0.396867 0.00266053 -6.18435 0.0831167 -0.979593
6.18382 -0.0831096 -0.541063 22 -0.849616 -0.526354 -0.0332284 -6.18382 0.0831096 0.541063
6.17583 -0.0840802 1.20057 19 -0.892157 -0.446629 -0.067661 -6.17583 0.0840802 -1.20057
6.18293 -0.0852562 -0.324064 19 -0.896587 -0.440397 -0.0467053 -6.18293 0.0852562 0.324064
6.1847 -0.0863603 1.42799 20 -0.91619 -0.393239 -0.0771899 -6.1847 0.0863603 -1.42799
6.19244 -0.0875494 -0.1081 14 -0.879661 -0.473919 -0.039974 -6.19244 0.0875494 0.1081
6.16584 -0.0882497 1.6523 19 -0.91619 -0.393239 -0.0771899 -6.16584 0.0882497 -1.6523
6.1823 -0.0971193 0.107926 14 -0.899143 -0.43704 -0.0231761 -6.1823 0.0971193 -0.107926
3.3631 -0.0534189 -0.776531 6 -0.0181288 -0.0122161 0.999761 -3.3631 0.0534189 0.776531
6.19272 -0.0983641 0.324588 21 -0.892145 -0.450831 -0.0287747 -6.19272 0.0983641 -0.324588
6.19751 -0.100604 0.542283 16 -0.908042 -0.41827 -0.0225847 -6.19751 0.100604 -0.542283
6.20254 -0.103934 -0.761683 18 0.120954 -0.00365143 0.992651 -6.20254 0.103934 0.761683
6.18658 -0.106907 -0.324274 19 -0.896587 -0.440397 -0.0467053 -6.18658 0.106907 0.324274
6.18435 -0.119825 0.324169 19 -0.899143 -0.43704 -0.0231761 -6.18435 0.119825 -0.324169
4.01801 -0.0785529 -0.781172 4 0.14791 -0.0051472 0.988987 -4.01801 0.0785529 0.781172
4.83083 -0.0952871 -0.765278 4 -0.162519 0.00596609 -0.986687 -4.83083 0.0952871 0.765278
6.22093 -0.127051 -0.544375 18 -0.881518 -0.470356 -0.0411287 -6.22093 0.127051 0.544375
6.20259 -0.126677 1.20591 17 -0.931681 -0.361565 -0.0352313 -6.20259 0.126677 -1.20591
6.21569 -0.1302 -0.108519 14 -0.879661 -0.473919 -0.039974 -6.21569 0.1302 0.108519
6.19793 -0.13091 1.6611 22 -0.937494 -0.343412 -0.0563344 -6.19793 0.13091 -1.6611
2.93761 -0.0656378 -0.787328 7 0.253673 -0.00886522 0.967249 -2.93761 0.0656378 0.787328
6.21348 -0.139919 0.108484 15 -0.879661 -0.473919 -0.039974 -6.21348 0.139919 -0.108484
6.19588 -0.141686 0.324797 19 -0.892145 -0.450831 -0.0287747 -6.19588 0.141686 -0.324797
6.20966 -0.145254 0.762658 17 -0.908042 -0.41827 -0.0225847 -6.20966 0.145254 -0.762658
6.22842 -0.148956 -0.545072 20 -0.881518 -0.470356 -0.0411287 -6.22842 0.148956 0.545072
6.20881 -0.150656 1.43384 23 -0.937494 -0.343412 -0.0563344 -6.20881 0.150656 -1.43384
6.2192 -0.151994 -0.108589 14 -0.879661 -0.473919 -0.039974 -6.2192 0.151994 0.108589
6.20323 -0.152687 1.66265 23 -0.937494 -0.343412 -0.0563344 -6.20323 0.152687 -1.66265
2.92577 -0.0761029 -0.784222 8 -0.0181288 -0.0122161 0.999761 -2.92577 0.0761029 0.784222
6.23094 -0.162075 0.108798 29 -0.892145 -0.450831 -0.0287747 -6.23094 0.162075 -0.108798
3.99382 -0.105977 -0.776593 5 -0.0026897 -0.0119896 0.999925 -3.99382 0.105977 0.776593
6.224 -0.166242 0.544723 33 -0.908042 -0.41827 -0.0225847 -6.224 0.166242 -0.544723
4.83398 -0.129959 -0.765903 4 -0.162519 0.00596609 -0.986687 -4.83398 0.129959 0.765903
6.22895 -0.167463 0.765096 29 -0.908042 -0.41827 -0.0225847 -6.22895 0.167463 -0.765096
6.2199 -0.170478 -0.544375 36 -0.881518 -0.470356 -0.0411287 -6.2199 0.170478 0.544375
6.22705 -0.17285 -0.326472 36 -0.881518 -0.470356 -0.0411287 -6.22705 0.17285 0.326472
6.23354 -0.174118 1.43969 35 -0.937494 -0.343412 -0.0563344 -6.23354 0.174118 -1.43969
2.92934 -0.0864292 -0.785257 8 0.253673 -0.00886522 0.967249 -2.92934 0.0864292 0.785257
6.23231 -0.184971 0.108833 24 -0.892145 -0.450831 -0.0287747 -6.23231 0.184971 -0.108833
4.00716 -0.12033 -0.779264 4 0.154873 -0.00153454 0.987933 -4.00716 0.12033 0.779264
6.23732 -0.188388 0.545944 22 -0.920256 -0.387645 -0.0534782 -6.23732 0.188388 -0.545944
4.81967 -0.146412 -0.763713 4 0.0999703 4.20756e-05 0.99499 -4.81967 0.146412 0.763713
6.2283 -0.190292 0.765096 24 -0.920256 -0.387645 -0.0534782 -6.2283 0.190292 -0.765096
6.25208 -0.19211 -0.768021 4 0.120954 -0.00365143 0.992651 -6.25208 0.19211 0.768021
6.24114 -0.193955 -0.546292 23 -0.836294 -0.54745 -0.0301695 -6.24114 0.193955 0.546292
6.22248 -0.193375 1.21011 28 -0.931681 -0.361565 -0.0352313 -6.22248 0.193375 -1.21011
6.21549 -0.197502 1.66628 20 -0.888244 -0.45793 -0.0363687 -6.21549 0.197502 -1.66628
4.01454 -0.13528 -0.78079 4 0.154873 -0.00153454 0.987933 -4.01454 0.13528 0.78079
6.25053 -0.21172 0.547164 13 -0.920256 -0.387645 -0.0534782 -6.25053 0.21172 -0.547164
4.82503 -0.164278 -0.764652 5 -0.01894 -0.00121252 0.99982 -4.82503 0.164278 0.764652
6.24837 -0.214922 0.99023 17 -0.893095 -0.448795 0.0310625 -6.24837 0.214922 -0.99023
6.23546 -0.216657 1.21278 16 -0.888007 -0.459822 0.00289812 -6.23546 0.216657 -1.21278
6.25161 -0.219403 1.44419 15 -0.888007 -0.459822 0.00289812 -6.25161 0.219403 -1.44419
6.25719 -0.219599 -0.109287 14 -0.945668 -0.319687 -0.0592593 -6.25719 0.219599 0.109287
6.236 -0.219946 1.67197 18 -0.888244 -0.45793 -0.0363687 -6.236 0.219946 -1.67197
6.24685 -0.229062 0.109112 15 -0.945668 -0.319687 -0.0592593 -6.24685 0.229062 -0.109112
4.84025 -0.180868 -0.767155 4 0.0375688 -0.00275127 0.99929 -4.84025 0.180868 0.767155
6.26555 -0.237413 -0.548558 18 -0.958338 -0.285462 0.00999809 -6.26555 0.237413 0.548558
6.245 -0.239909 1.44284 16 -0.888007 -0.459822 0.00289812 -6.245 0.239909 -1.44284
6.26443 -0.240655 -0.109427 11 -0.945668 -0.319687 -0.0592593 -6.26443 0.240655 0.109427
6.25233 -0.252212 0.327937 19 -0.936749 -0.346924 -0.0463173 -6.25233 0.252212 -0.327937
6.26885 -0.255071 0.548907 16 -0.920256 -0.387645 -0.0534782 -6.26885 0.255071 -0.548907
4.82975 -0.196516 -0.76559 4 -0.162519 0.00596609 -0.986687 -4.82975 0.196516 0.76559
6.26171 -0.255875 0.769483 19 -0.905742 -0.423672 -0.011571 -6.26171 0.255875 -0.769483
6.26762 -0.257212 -0.770214 6 -0.958338 -0.285462 0.00999809 -6.26762 0.257212 0.770214
6.25861 -0.257936 0.992108 16 -0.905742 -0.423672 -0.011571 -6.25861 0.257936 -0.992108
6.26668 -0.259365 -0.548733 17 -0.958338 -0.285462 0.00999809 -6.26668 0.259365 0.548733
6.27312 -0.259631 1.22041 19 -0.888007 -0.459822 0.00289812 -6.27312 0.259631 -1.22041
6.27197 -0.26068 -0.328984 18 -0.836294 -0.54745 -0.0301695 -6.27197 0.26068 0.328984
6.27154 -0.262855 -0.109566 14 -0.945668 -0.319687 -0.0592593 -6.27154 0.262855 0.109566
2.92787 -0.12681 -0.785257 7 -0.0178359 -0.00466899 0.99983 -2.92787 0.12681 0.785257
6.28111 -0.273141 0.109741 15 -0.936749 -0.346924 -0.0463173 -6.28111 0.273141 -0.109741
6.27136 -0.27491 0.328984 16 -0.936749 -0.346924 -0.0463173 -6.27136 0.27491 -0.328984
3.99139 -0.174966 -0.776593 5 -0.0026897 -0.0119896 0.999925 -3.99139 0.174966 0.776593
6.26754 -0.280223 0.993672 15 -0.905742 -0.423672 -0.011571 -6.26754 0.280223 -0.993672
6.29896 -0.283831 -0.330449 18 -0.836294 -0.54745 -0.0301695 -6.29896 0.283831 0.330449
6.27437 -0.28382 1.45003 16 -0.888244 -0.45793 -0.0363687 -6.27437 0.28382 -1.45003
6.26043 -0.285379 1.67922 20 -0.888244 -0.45793 -0.0363687 -6.26043 0.285379 -1.67922
6.28411 -0.295252 0.109811 14 -0.936749 -0.346924 -0.0463173 -6.28411 0.295252 -0.109811
4.02014 -0.190991 -0.782317 4 0.14791 -0.0051472 0.988987 -4.02014 0.190991 0.782317
6.28881 -0.299873 0.550824 15 -0.920256 -0.387645 -0.0534782 -6.28881 0.299873 -0.550824
6.27563 -0.300343 0.771433 15 -0.905742 -0.423672 -0.011571 -6.27563 0.300343 -0.771433
6.28461 -0.304071 -0.550476 17 -0.958338 -0.285462 0.00999809 -6.28461 0.304071 0.550476
6.30186 -0.30711 -0.330659 18 0.0518898 -0.003254 0.998648 -6.30186 0.30711 0.330659
6.29276 -0.307767 1.45453 16 -0.935409 -0.326646 -0.135321 -6.29276 0.307767 -1.45453
6.29352 -0.307804 -0.109985 14 -0.919593 -0.391621 -0.0313439 -6.29352 0.307804 0.109985
6.28698 -0.318485 0.10988 15 -0.919593 -0.391621 -0.0313439 -6.28698 0.318485 -0.10988
4.01552 -0.204823 -0.781554 4 0.14791 -0.0051472 0.988987 -4.01552 0.204823 0.781554
4.81752 -0.247417 -0.764026 5 -0.0724678 -0.000386387 0.997371 -4.81752 0.247417 0.764026
6.31232 -0.331919 -0.110334 13 -0.919593 -0.391621 -0.0313439 -6.31232 0.331919 0.110334
2.94565 -0.159015 -0.790433 7 -0.264685 0.00677979 -0.964311 -2.94565 0.159015 0.790433
6.31378 -0.341942 0.110369 14 -0.919593 -0.391621 -0.0313439 -6.31378 0.341942 -0.110369
6.30398 -0.343618 0.330868 18 -0.826932 -0.54908 0.121219 -6.30398 0.343618 -0.330868
4.82649 -0.264773 -0.76559 4 -0.162519 0.00596609 -0.986687 -4.82649 0.264773 0.76559
6.27921 -0.346665 -0.772164 4 0.112235 -0.00765761 0.993652 -6.27921 0.346665 0.772164
6.32213 -0.350141 -0.553962 17 -0.900109 -0.435653 -0.00329202 -6.32213 0.350141 0.553962
6.31112 -0.353951 -0.110334 11 -0.0181945 0.000713448 -0.999834 -6.31112 0.353951 0.110334
6.29754 -0.354292 1.69009 12 -0.262261 0.0150792 0.964879 -6.29754 0.354292 -1.69009
2.92965 -0.168409 -0.786292 7 0.253673 -0.00886522 0.967249 -2.92965 0.168409 0.786292
3.3871 -0.195892 -0.78328 5 0.223617 -0.0157114 0.97455 -3.3871 0.195892 0.78328
6.30679 -0.364752 0.331077 18 0.0521823 -0.00359441 -0.998631 -6.30679 0.364752 -0.331077
6.3251 -0.368026 0.554311 16 -0.0883136 0.00475578 0.996081 -6.3251 0.368026 -0.554311
6.31231 -0.370598 1.00149 13 0.154119 -0.011875 -0.987981 -6.31231 0.370598 -1.00149
6.33479 -0.373027 -0.555182 18 -0.900109 -0.435653 -0.00329202 -6.33479 0.373027 0.555182
6.3244 -0.373523 1.23148 17 0.189346 -0.0125448 -0.98183 -6.3244 0.373523 -1.23148
6.30597 -0.375748 1.69268 11 -0.262261 0.0150792 0.964879 -6.30597 0.375748 -1.69268
2.93675 -0.179105 -0.788363 7 0.256279 -0.0215978 0.966361 -2.93675 0.179105 0.788363
3.39226 -0.20748 -0.784629 5 0.223617 -0.0157114 0.97455 -3.39226 0.20748 0.784629
6.3294 -0.388232 0.332333 16 0.0521823 -0.00359441 -0.998631 -6.3294 0.388232 -0.332333
3.99552 -0.245777 -0.778119 4 0.177928 -0.00813689 0.98401 -3.99552 0.245777 0.778119
6.32776 -0.390348 0.554659 15 -0.0883136 0.00475578 0.996081 -6.32776 0.390348 -0.554659
4.83641 -0.298349 -0.767468 3 0.0375688 -0.00275127 0.99929 -4.83641 0.298349 0.767468
6.33027 -0.391612 0.778745 15 -0.876772 -0.480645 -0.015821 -6.33027 0.391612 -0.778745
6.2668 -0.388783 -0.770946 4 -0.856382 -0.362977 0.36723 -6.2668 0.388783 0.770946
6.32549 -0.394641 -0.554485 20 -0.900109 -0.435653 -0.00329202 -6.32549 0.394641 0.554485
6.33488 -0.395227 1.23377 16 0.189346 -0.0125448 -0.98183 -6.33488 0.395227 -1.23377
6.34487 -0.396962 -0.333171 15 0.0518898 -0.003254 0.998648 -6.34487 0.396962 0.333171
6.32292 -0.396697 1.46263 15 -0.935409 -0.326646 -0.135321 -6.32292 0.396697 -1.46263
6.33251 -0.398408 -0.110753 11 -0.0181945 0.000713448 -0.999834 -6.33251 0.398408 0.110753
6.30655 -0.397879 1.69319 12 -0.262261 0.0150792 0.964879 -6.30655 0.397879 -1.69319
2.92843 -0.188347 -0.786292 7 -0.0178359 -0.00466899 0.99983 -2.92843 0.188347 0.786292
3.39152 -0.21932 -0.784629 5 0.223617 -0.0157114 0.97455 -3.39152 0.21932 0.784629
6.33199 -0.410581 0.332543 16 0.0521823 -0.00359441 -0.998631 -6.33199 0.410581 -0.332543
4.81168 -0.313687 -0.763713 3 -0.0724678 -0.000386387 0.997371 -4.81168 0.313687 0.763713
6.28125 -0.411695 -0.772895 4 0.112235 -0.00765761 0.993652 -6.28125 0.411695 0.772895
6.34197 -0.417898 -0.556054 17 -0.856382 -0.362977 0.36723 -6.34197 0.417898 0.556054
6.33738 -0.417596 1.23453 16 0.189346 -0.0125448 -0.98183 -6.33738 0.417596 -1.23453
6.34743 -0.419371 -0.33338 15 0.0518898 -0.003254 0.998648 -6.34743 0.419371 0.33338
6.34705 -0.42157 -0.111032 11 -0.0181945 0.000713448 -0.999834 -6.34705 0.42157 0.111032
6.32632 -0.421303 1.69889 12 -0.262261 0.0150792 0.964879 -6.32632 0.421303 -1.69889
6.34039 -0.431133 0.110927 14 -0.826932 -0.54908 0.121219 -6.34039 0.431133 -0.110927
4.82232 -0.332135 -0.76559 3 -0.01894 -0.00121252 0.99982 -4.82232 0.332135 0.76559
6.33926 -0.436614 0.780208 15 -0.876772 -0.480645 -0.015821 -6.33926 0.436614 -0.780208
6.28175 -0.433755 -0.773139 2 0.112235 -0.00765761 0.993652 -6.28175 0.433755 0.773139
6.3475 -0.439407 1.00775 15 0.154119 -0.011875 -0.987981 -6.3475 0.439407 -1.00775
6.34714 -0.443835 1.46893 15 -0.891896 -0.451388 -0.0277634 -6.34714 0.443835 -1.46893
6.34023 -0.444464 1.70303 13 -0.262261 0.0150792 0.964879 -6.34023 0.444464 -1.70303
2.95013 -0.210951 -0.792504 7 0.256279 -0.0215978 0.966361 -2.95013 0.210951 0.792504
4.81916 -0.348824 -0.765278 4 -0.01894 -0.00121252 0.99982 -4.81916 0.348824 0.765278
6.26428 -0.455624 -0.771189 2 -0.856382 -0.362977 0.36723 -6.26428 0.455624 0.771189
6.36949 -0.464393 1.01151 12 0.154119 -0.011875 -0.987981 -6.36949 0.464393 -1.01151
6.38659 -0.46564 -0.560237 18 -0.856382 -0.362977 0.36723 -6.38659 0.46564 0.560237
6.37179 -0.469033 -0.111521 11 -0.0181945 0.000713448 -0.999834 -6.37179 0.469033 0.111521
6.37304 -0.479191 0.111556 15 -0.826932 -0.54908 0.121219 -6.37304 0.479191 -0.111556
6.3671 -0.48098 0.334636 20 0.0521823 -0.00359441 -0.998631 -6.3671 0.48098 -0.334636
3.99366 -0.301687 -0.778501 4 0.177928 -0.00813689 0.98401 -3.99366 0.301687 0.778501
6.36783 -0.486624 1.01151 13 0.154119 -0.011875 -0.987981 -6.36783 0.486624 -1.01151
6.3889 -0.488234 -0.560586 33 -0.856382 -0.362977 0.36723 -6.3889 0.488234 0.560586
6.38347 -0.48894 1.24446 17 -0.935409 -0.326646 -0.135321 -6.38347 0.48894 -1.24446
6.3672 -0.489929 1.47433 15 -0.891896 -0.451388 -0.0277634 -6.3672 0.489929 -1.47433
2.92548 -0.229726 -0.786292 7 -0.0178359 -0.00466899 0.99983 -2.92548 0.229726 0.786292
6.39525 -0.503317 0.111975 66 -0.826932 -0.54908 0.121219 -6.39525 0.503317 -0.111975
3.39779 -0.268009 -0.786879 5 0.223617 -0.0157114 0.97455 -3.39779 0.268009 0.786879
6.37956 -0.505444 0.559888 55 -0.876772 -0.480645 -0.015821 -6.37956 0.505444 -0.559888
4.82252 -0.382928 -0.766216 3 -0.01894 -0.00121252 0.99982 -4.82252 0.382928 0.766216
6.39462 -0.513376 -0.336206 31 -0.900109 -0.435653 -0.00329202 -6.39462 0.513376 0.336206
6.39265 -0.51434 1.48063 47 -0.891896 -0.451388 -0.0277634 -6.39265 0.51434 -1.48063
6.36788 -0.514584 1.71183 27 -0.426695 0.901032 -0.0779229 -6.36788 0.514584 -1.71183
6.36954 -0.523671 0.111556 15 -0.366061 0.930439 0.0168161 -6.36954 0.523671 -0.111556
6.37155 -0.526076 0.335055 16 -0.366061 0.930439 0.0168161 -6.37155 0.526076 -0.335055
4.00124 -0.330368 -0.780409 4 0.162517 -0.0222317 0.986455 -4.00124 0.330368 0.780409
6.37379 -0.527381 0.55954 13 -0.378469 0.925588 0.00697028 -6.37379 0.527381 -0.55954
6.34165 -0.52918 -0.556751 11 -0.505574 0.852822 0.130729 -6.34165 0.52918 0.556751
6.34502 -0.531691 -0.333694 13 -0.365875 0.930507 0.0170905 -6.34502 0.531691 0.333694
6.38304 -0.535999 1.47883 16 -0.426695 0.901032 -0.0779229 -6.38304 0.535999 -1.47883
2.9315 -0.250803 -0.788363 8 0.245329 -0.0288569 0.96901 -2.9315 0.250803 0.788363
6.31786 -0.541632 0.110683 10 -0.366061 0.930439 0.0168161 -6.31786 0.541632 -0.110683
6.3239 -0.544373 0.332647 14 -0.366061 0.930439 0.0168161 -6.3239 0.544373 -0.332647
3.99811 -0.344165 -0.780027 4 0.162517 -0.0222317 0.986455 -3.99811 0.344165 0.780027
6.3203 -0.545175 0.555008 12 -0.378469 0.925588 0.00697028 -6.3203 0.545175 -0.555008
4.81776 -0.416416 -0.765903 4 -0.01894 -0.00121252 0.99982 -4.81776 0.416416 0.765903
6.32696 -0.550199 1.00587 11 -0.300927 0.953344 0.0240409 -6.32696 0.550199 -1.00587
6.30334 -0.550362 -0.331601 11 -0.365875 0.930507 0.0170905 -6.30334 0.550362 0.331601
6.32678 -0.553521 1.46623 11 -0.338839 0.940834 0.00438791 -6.32678 0.553521 -1.46623
6.28008 -0.560482 0.110055 10 -0.415663 0.909284 -0.0206791 -6.28008 0.560482 -0.110055
3.3851 -0.302707 -0.784629 6 -0.0207308 -0.0253719 0.999463 -3.3851 0.302707 0.784629
6.27024 -0.56181 0.329926 12 -0.366061 0.930439 0.0168161 -6.27024 0.56181 -0.329926
4.83005 -0.434469 -0.768093 4 0.0375688 -0.00275127 0.99929 -4.83005 0.434469 0.768093
6.26932 -0.565037 0.772895 14 -0.300927 0.953344 0.0240409 -6.26932 0.565037 -0.772895
6.2277 -0.562382 -0.767777 12 -0.505574 0.852822 0.130729 -6.2277 0.562382 0.767777
6.26991 -0.567297 0.997113 10 -0.300927 0.953344 0.0240409 -6.26991 0.567297 -0.997113
6.27826 -0.569157 1.22538 12 -0.338839 0.940834 0.00438791 -6.27826 0.569157 -1.22538
6.25762 -0.568387 -0.329298 9 -0.365875 0.930507 0.0170905 -6.25762 0.568387 0.329298
6.27823 -0.571364 1.45543 11 -0.338839 0.940834 0.00438791 -6.27823 0.571364 -1.45543
2.93353 -0.271619 -0.789398 10 0.256279 -0.0215978 0.966361 -2.93353 0.271619 0.789398
6.24224 -0.579075 0.109427 10 -0.415663 0.909284 -0.0206791 -6.24224 0.579075 -0.109427
3.38402 -0.314522 -0.784629 6 -0.0207308 -0.0253719 0.999463 -3.38402 0.314522 0.784629
6.23699 -0.581882 0.548035 12 -0.378469 0.925588 0.00697028 -6.23699 0.581882 -0.548035
4.8344 -0.451878 -0.769032 5 0.0375688 -0.00275127 0.99929 -4.8344 0.451878 0.769032
6.22778 -0.583215 0.768021 12 -0.378469 0.925588 0.00697028 -6.22778 0.583215 -0.768021
6.19408 -0.58115 -0.763877 16 -0.505574 0.852822 0.130729 -6.19408 0.58115 0.763877
6.21476 -0.584185 -0.546118 11 -0.365875 0.930507 0.0170905 -6.21476 0.584185 0.546118
6.23324 -0.587019 1.21698 12 -0.338839 0.940834 0.00438791 -6.23324 0.587019 -1.21698
6.22963 -0.588874 1.44464 12 -0.338839 0.940834 0.00438791 -6.22963 0.588874 -1.44464
6.22519 -0.58955 -0.109147 7 -0.415663 0.909284 -0.0206791 -6.22519 0.58955 0.109147
6.22545 -0.59067 1.67559 13 -0.426695 0.901032 -0.0779229 -6.22545 0.59067 -1.67559
6.18843 -0.595878 0.108519 10 -0.415663 0.909284 -0.0206791 -6.18843 0.595878 -0.108519
3.38678 -0.326706 -0.785529 6 -0.0207308 -0.0253719 0.999463 -3.38678 0.326706 0.785529
3.99624 -0.386202 -0.780409 4 -0.231038 0.0232957 -0.972666 -3.99624 0.386202 0.780409
6.18213 -0.601806 -0.762658 18 -0.410864 0.911055 -0.0342072 -6.18213 0.601806 0.762658
6.19109 -0.603769 0.985224 11 -0.378331 0.925292 0.0264827 -6.19109 0.603769 -0.985224
6.16906 -0.60162 -0.542283 11 -0.410864 0.911055 -0.0342072 -6.16906 0.60162 0.542283
6.2077 -0.606483 1.2124 12 -0.396906 0.917766 0.0130751 -6.2077 0.606483 -1.2124
6.17399 -0.604277 -0.325111 9 -0.429879 0.902751 -0.0156222 -6.17399 0.604277 0.325111
6.1505 -0.613901 0.107891 10 -0.42315 0.905818 0.0209391 -6.1505 0.613901 -0.107891
6.16078 -0.616014 0.324483 12 -0.42315 0.905818 0.0209391 -6.16078 0.616014 -0.324483
6.15348 -0.617453 0.541063 10 -0.422372 0.905701 -0.0361687 -6.15348 0.617453 -0.541063
4.80755 -0.483247 -0.765278 4 0.151223 -0.0178719 0.988338 -4.80755 0.483247 0.765278
6.1564 -0.619917 0.759734 12 -0.378331 0.925292 0.0264827 -6.1564 0.619917 -0.759734
6.15234 -0.620593 -0.759246 18 -0.410864 0.911055 -0.0342072 -6.15234 0.620593 0.759246
6.1694 -0.622314 0.982096 11 -0.378331 0.925292 0.0264827 -6.1694 0.622314 -0.982096
6.16333 -0.626048 1.43024 11 -0.447962 0.893529 -0.0306012 -6.16333 0.626048 -1.43024
6.14743 -0.624433 -0.107856 7 -0.332722 0.94247 0.0323337 -6.14743 0.624433 0.107856
2.9286 -0.302125 -0.78888 10 0.245329 -0.0288569 0.96901 -2.9286 0.302125 0.78888
3.36122 -0.347348 -0.78013 7 -0.0181288 -0.0122161 0.999761 -3.36122 0.347348 0.78013
3.99344 -0.414091 -0.780409 4 -0.231038 0.0232957 -0.972666 -3.99344 0.414091 0.780409
4.80395 -0.498982 -0.764965 4 0.151223 -0.0178719 0.988338 -4.80395 0.498982 0.764965
6.09892 -0.635641 -0.752909 19 -0.410864 0.911055 -0.0342072 -6.09892 0.635641 0.752909
6.12004 -0.638922 0.974587 11 -0.378331 0.925292 0.0264827 -6.12004 0.638922 -0.974587
6.1013 -0.638042 -0.536705 11 -0.429879 0.902751 -0.0156222 -6.1013 0.638042 0.536705
6.12923 -0.640964 1.1979 12 -0.396906 0.917766 0.0130751 -6.12923 0.640964 -1.1979
6.10952 -0.643215 1.64609 12 -0.447962 0.893529 -0.0306012 -6.10952 0.643215 -1.64609
2.93334 -0.312448 -0.790433 8 0.256279 -0.0215978 0.966361 -2.93334 0.312448 0.790433
6.08255 -0.648963 0.106774 10 -0.332722 0.94247 0.0323337 -6.08255 0.648963 -0.106774
6.0769 -0.650505 0.320296 14 -0.42315 0.905818 0.0209391 -6.0769 0.650505 -0.320296
4.00376 -0.428585 -0.782699 4 0.162517 -0.0222317 0.986455 -4.00376 0.428585 0.782699
6.09366 -0.653376 0.536182 10 -0.422372 0.905701 -0.0361687 -6.09366 0.653376 -0.536182
6.06322 -0.652253 0.748765 12 -0.422372 0.905701 -0.0361687 -6.06322 0.652253 -0.748765
6.07298 -0.654375 -0.749984 19 -0.410864 0.911055 -0.0342072 -6.07298 0.654375 0.749984
6.07526 -0.656766 -0.534613 11 -0.429879 0.902751 -0.0156222 -6.07526 0.656766 0.534613
6.08597 -0.657924 1.18988 11 -0.396906 0.917766 0.0130751 -6.08597 0.657924 -1.18988
6.06418 -0.656639 -0.319668 11 -0.429879 0.902751 -0.0156222 -6.06418 0.656639 0.319668
6.08531 -0.660001 1.41314 11 -0.396906 0.917766 0.0130751 -6.08531 0.660001 -1.41314
6.04749 -0.656968 -0.10618 7 -0.332722 0.94247 0.0323337 -6.04749 0.656968 0.10618
6.05639 -0.667562 0.106355 10 -0.332722 0.94247 0.0323337 -6.05639 0.667562 -0.106355
6.04282 -0.668202 0.318621 12 -0.42315 0.905818 0.0209391 -6.04282 0.668202 -0.318621
4.814 -0.534873 -0.767155 4 -0.158597 0.0189978 -0.987161 -4.814 0.534873 0.767155
6.0312 -0.671178 -0.745109 19 -0.410864 0.911055 -0.0342072 -6.0312 0.671178 0.745109
6.02937 -0.673106 -0.530778 11 -0.429879 0.902751 -0.0156222 -6.02937 0.673106 0.530778
6.02204 -0.674415 -0.317575 11 -0.410298 0.911854 -0.0133502 -6.02204 0.674415 0.317575
6.05186 -0.678825 1.40594 12 -0.387832 0.921719 -0.00446516 -6.05186 0.678825 -1.40594
6.03577 -0.678087 1.62745 11 -0.447962 0.893529 -0.0306012 -6.03577 0.678087 -1.62745
2.91952 -0.332121 -0.787328 8 0.255977 -0.0294541 0.966234 -2.91952 0.332121 0.787328
5.99827 -0.683417 0.105378 10 -0.332722 0.94247 0.0323337 -5.99827 0.683417 -0.105378
6.00859 -0.686717 0.316947 12 -0.42315 0.905818 0.0209391 -6.00859 0.686717 -0.316947
3.99474 -0.456556 -0.781554 4 -0.231038 0.0232957 -0.972666 -3.99474 0.456556 0.781554
4.81603 -0.552123 -0.76778 4 -0.158597 0.0189978 -0.987161 -4.81603 0.552123 0.76778
6.00121 -0.689057 0.741697 12 -0.526517 0.850094 0.0109263 -6.00121 0.689057 -0.741697
6.007 -0.690785 -0.742428 17 -0.410298 0.911854 -0.0133502 -6.007 0.690785 0.742428
6.00309 -0.692458 1.17462 11 -0.387832 0.921719 -0.00446516 -6.00309 0.692458 -1.17462
5.98393 -0.691306 -0.315691 11 -0.410298 0.911854 -0.0133502 -5.98393 0.691306 0.315691
6.01074 -0.695466 1.39695 12 -0.387832 0.921719 -0.00446516 -6.01074 0.695466 -1.39695
5.989 -0.694011 -0.105238 7 -0.398472 0.917179 -0.00165574 -5.989 0.694011 0.105238
5.96805 -0.701084 0.104889 10 -0.398472 0.917179 -0.00165574 -5.96805 0.701084 -0.104889
3.36371 -0.39574 -0.78193 6 -0.23989 0.0287407 -0.970375 -3.36371 0.39574 0.78193
3.99109 -0.470964 -0.781172 4 -0.193576 0.0226998 -0.980823 -3.99109 0.470964 0.781172
5.97543 -0.706182 0.526421 10 -0.526517 0.850094 0.0109263 -5.97543 0.706182 -0.526421
4.80809 -0.569075 -0.766842 3 0.151223 -0.0178719 0.988338 -4.80809 0.569075 0.766842
5.96513 -0.707075 -0.737553 14 -0.410298 0.911854 -0.0133502 -5.96513 0.707075 0.737553
5.98093 -0.710007 0.953938 10 -0.526517 0.850094 0.0109263 -5.98093 0.710007 -0.953938
5.94922 -0.707295 -0.524155 11 -0.410298 0.911854 -0.0133502 -5.94922 0.707295 0.524155
5.95676 -0.711355 -0.104714 7 -0.398472 0.917179 -0.00165574 -5.95676 0.711355 0.104714
5.95979 -0.712772 1.6083 13 -0.387832 0.921719 -0.00446516 -5.95979 0.712772 -1.6083
5.93239 -0.718949 0.313178 12 -0.398472 0.917179 -0.00165574 -5.93239 0.718949 -0.313178
3.99544 -0.484209 -0.782317 4 -0.231038 0.0232957 -0.972666 -3.99544 0.484209 0.782317
4.80236 -0.5837 -0.766216 3 0.151223 -0.0178719 0.988338 -4.80236 0.5837 0.766216
5.92334 -0.722048 -0.732679 14 -0.474841 0.880056 -0.00519513 -5.92334 0.722048 0.732679
5.90939 -0.721395 -0.520843 12 -0.474841 0.880056 -0.00519513 -5.90939 0.721395 0.520843
5.92063 -0.726962 -0.104121 7 -0.398472 0.917179 -0.00165574 -5.92063 0.726962 0.104121
5.9363 -0.729938 1.60261 12 -0.43064 0.902504 0.00604346 -5.9363 0.729938 -1.60261
3.98983 -0.497666 -0.781554 4 -0.193576 0.0226998 -0.980823 -3.98983 0.497666 0.781554
4.79245 -0.599479 -0.764965 3 0.151223 -0.0178719 0.988338 -4.79245 0.599479 0.764965
5.9054 -0.741837 0.942674 10 -0.354986 0.934813 -0.0104444 -5.9054 0.741837 -0.942674
5.90604 -0.742965 1.15707 11 -0.43064 0.902504 0.00604346 -5.90604 0.742965 -1.15707
5.85854 -0.740105 -0.103074 7 -0.458965 0.888019 0.0278093 -5.85854 0.740105 0.103074
5.86917 -0.75394 0.517705 10 -0.354986 0.934813 -0.0104444 -5.86917 0.75394 -0.517705
4.81188 -0.618977 -0.768406 4 -0.158597 0.0189978 -0.987161 -4.81188 0.618977 0.768406
5.86513 -0.755503 0.726098 14 -0.354986 0.934813 -0.0104444 -5.86513 0.755503 -0.726098
5.85516 -0.755257 -0.724879 14 -0.474841 0.880056 -0.00519513 -5.85516 0.755257 0.724879
5.85184 -0.755867 0.93454 11 -0.354986 0.934813 -0.0104444 -5.85184 0.755867 -0.93454
5.85499 -0.758352 -0.30941 14 -0.374535 0.927153 -0.0105372 -5.85499 0.758352 0.30941
5.87303 -0.761731 1.36725 12 -0.360869 0.932594 -0.00651368 -5.87303 0.761731 -1.36725
3.36566 -0.443098 -0.783729 6 -0.23989 0.0287407 -0.970375 -3.36566 0.443098 0.783729
5.84137 -0.770069 0.308782 12 -0.391141 0.920282 0.00948826 -5.84137 0.770069 -0.308782
5.82686 -0.770225 0.514219 10 -0.508031 0.861237 0.0132642 -5.82686 0.770225 -0.514219
5.82887 -0.77256 -0.721954 12 -0.374535 0.927153 -0.0105372 -5.82887 0.77256 0.721954
5.82566 -0.77317 0.930785 11 -0.508031 0.861237 0.0132642 -5.82566 0.77317 -0.930785
5.83635 -0.776662 1.14447 13 -0.360869 0.932594 -0.00651368 -5.83635 0.776662 -1.14447
5.8205 -0.775586 -0.307735 14 -0.374535 0.927153 -0.0105372 -5.8205 0.775586 0.307735
5.8211 -0.777735 1.57362 11 -0.360869 0.932594 -0.00651368 -5.8211 0.777735 -1.57362
2.91192 -0.39319 -0.787328 8 0.255977 -0.0294541 0.966234 -2.91192 0.39319 0.787328
5.78448 -0.782092 0.101887 12 -0.391141 0.920282 0.00948826 -5.78448 0.782092 -0.101887
5.79893 -0.786107 0.306689 14 -0.391141 0.920282 0.00948826 -5.79893 0.786107 -0.306689
4.79362 -0.651531 -0.766216 3 0.151223 -0.0178719 0.988338 -4.79362 0.651531 0.766216
5.79663 -0.788887 0.718298 12 -0.508031 0.861237 0.0132642 -5.79663 0.788887 -0.718298
5.79276 -0.791449 1.13646 12 -0.360869 0.932594 -0.00651368 -5.79276 0.791449 -1.13646
5.81723 -0.796861 1.35556 11 -0.392114 0.919916 -0.000391877 -5.81723 0.796861 -1.35556
5.78693 -0.79374 -0.101957 10 -0.391141 0.920282 0.00948826 -5.78693 0.79374 0.101957
5.78759 -0.79486 1.56534 11 -0.360869 0.932594 -0.00651368 -5.78759 0.79486 -1.56534
3.35855 -0.466634 -0.78283 6 -0.229376 0.0323076 -0.972802 -3.35855 0.466634 0.78283
5.77004 -0.803738 0.509687 10 -0.508031 0.861237 0.0132642 -5.77004 0.803738 -0.509687
5.75845 -0.804174 0.713911 12 -0.485387 0.874273 0.00687131 -5.75845 0.804174 -0.713911
5.75566 -0.805833 -0.508467 12 -0.341836 0.939735 -0.00683191 -5.75566 0.805833 0.508467
5.76663 -0.808394 1.13188 12 -0.392114 0.919916 -0.000391877 -5.76663 0.808394 -1.13188
5.73978 -0.805652 -0.303758 11 -0.341836 0.939735 -0.00683191 -5.73978 0.805652 0.303758
5.76038 -0.809568 1.34296 12 -0.392114 0.919916 -0.000391877 -5.76038 0.809568 -1.34296
5.77422 -0.812542 -0.101782 7 -0.299739 0.953727 -0.0237015 -5.77422 0.812542 0.101782
5.7274 -0.81513 0.10098 12 -0.299739 0.953727 -0.0237015 -5.7274 0.81513 -0.10098
3.35304 -0.477805 -0.78193 6 -0.229376 0.0323076 -0.972802 -3.35304 0.477805 0.78193
5.71337 -0.820256 -0.50498 11 -0.341836 0.939735 -0.00683191 -5.71337 0.820256 0.50498
5.73042 -0.826787 1.55136 14 -0.392114 0.919916 -0.000391877 -5.73042 0.826787 -1.55136
5.70884 -0.831812 0.1007 10 -0.299739 0.953727 -0.0237015 -5.70884 0.831812 -0.1007
3.35529 -0.489484 -0.78283 5 -0.229376 0.0323076 -0.972802 -3.35529 0.489484 0.78283
5.68381 -0.830191 0.301036 12 -0.299739 0.953727 -0.0237015 -5.68381 0.830191 -0.301036
5.70317 -0.835053 0.504283 12 -0.372593 0.927989 -0.00327481 -5.70317 0.835053 -0.504283
4.80621 -0.70372 -0.769345 3 0.154157 -0.0243237 0.987747 -4.80621 0.70372 0.769345
5.69785 -0.83529 0.707086 14 -0.372593 0.927989 -0.00327481 -5.69785 0.83529 -0.707086
5.68789 -0.834843 -0.705867 14 -0.514116 0.857603 -0.0142081 -5.68789 0.834843 0.705867
5.68531 -0.835478 0.910136 12 -0.495192 0.868774 -0.0041705 -5.68531 0.835478 -0.910136
5.68288 -0.836134 -0.50254 11 -0.514116 0.857603 -0.0142081 -5.68288 0.836134 0.50254
5.71437 -0.840768 1.12272 13 -0.485387 0.874273 0.00687131 -5.71437 0.840768 -1.12272
5.69464 -0.838881 -0.301665 14 -0.349066 0.935329 -0.0575528 -5.69464 0.838881 0.301665
5.71232 -0.842503 1.33306 12 -0.392114 0.919916 -0.000391877 -5.71232 0.842503 -1.33306
5.67954 -0.838681 -0.100212 9 -0.299739 0.953727 -0.0237015 -5.67954 0.838681 0.100212
2.90049 -0.432446 -0.785775 10 -0.00485277 -0.0191132 0.999806 -2.90049 0.432446 0.785775
5.67426 -0.847011 0.100142 12 -0.380214 0.92458 0.0242558 -5.67426 0.847011 -0.100142
5.67297 -0.848844 0.300618 14 -0.380214 0.92458 0.0242558 -5.67297 0.848844 -0.300618
3.98424 -0.59616 -0.78308 4 0.187367 -0.0314617 0.981786 -3.98424 0.59616 0.78308
5.66491 -0.848647 0.501146 12 -0.372593 0.927989 -0.00327481 -5.66491 0.848647 -0.501146
