x,y,z,intensity
4.95646,2.13664,-0.47221,51
4.95647,2.13562,1.04907,67
4.95465,2.13381,-0.282719,67
4.9331,2.12351,1.23993,96
4.95593,2.13231,-0.0941732,41
4.94432,2.12629,1.44214,56
2.6668,1.14354,-0.777492,11
4.96074,2.12618,0.0942081,54
3.0846,1.32143,-0.774731,7
4.96094,2.12421,0.282824,49
3.63119,1.55483,-0.767815,6
4.95288,2.11974,0.471338,55
4.41695,1.88946,-0.760897,5
4.95921,2.1204,0.662238,52
4.95592,2.11797,-0.661751,59
4.95565,2.11683,0.853507,45
4.95839,2.11698,-0.471687,44
4.9545,2.11532,1.04716,58
4.95986,2.11658,-0.282614,54
4.94728,2.1102,1.24173,100
4.95929,2.11429,-0.0941034,45
4.9389,2.10458,1.43852,56
2.66386,1.13074,-0.775422,10
4.95708,2.10416,0.0939987,56
3.10355,1.31674,-0.778331,7
4.972,2.10844,0.283033,46
3.64048,1.54304,-0.768579,8
4.95328,2.09846,0.470641,50
4.41657,1.87018,-0.759646,8
4.96292,2.10153,0.661751,51
4.97243,2.10453,-0.662969,55
4.96665,2.10106,0.854132,43
4.96575,2.09966,-0.471687,42
4.95679,2.09485,1.04602,52
4.97494,2.1015,-0.283033,53
4.96396,2.09584,1.24398,101
4.9648,2.09619,-0.0940685,45
4.94622,2.08733,1.43852,56
2.67848,1.12593,-0.778528,11
4.96661,2.08675,0.0940336,54
3.09038,1.29781,-0.773832,7
4.97197,2.08798,0.282614,48
3.66033,1.53641,-0.771632,6
4.9716,2.08578,0.471687,58
4.4249,1.85551,-0.759959,8
4.9651,2.08102,0.661019,50
4.97461,2.08399,-0.662238,51
4.98853,2.08982,0.856635,43
4.97673,2.08385,-0.472035,40
4.96045,2.07602,1.04525,57
4.97488,2.08104,-0.282614,54
4.97304,2.07925,1.24443,104
4.98316,2.08348,-0.0942779,45
4.95704,2.07154,1.43955,56
2.68596,1.11806,-0.779563,11
4.98458,2.07488,0.094243,57
3.10007,1.2898,-0.775181,7
4.96816,2.06601,0.281986,49
3.64935,1.51684,-0.768197,10
4.98621,2.07147,0.472384,52
4.42555,1.83856,-0.75902,8
4.9683,2.06302,0.660532,50
4.9705,2.06291,-0.660776,53
4.9885,2.06936,0.855384,42
4.98949,2.06876,-0.472558,46
4.97093,2.06106,1.04602,57
4.97991,2.06376,-0.28251,57
4.96371,2.05603,1.24038,101
4.98855,2.06531,-0.094243,45
4.97138,2.05718,1.44162,56
2.68251,1.1062,-0.777492,11
4.9807,2.0529,0.0940336,57
3.09734,1.276,-0.773382,7
4.98088,2.05094,0.2823,43
3.65799,1.50622,-0.76896,10
4.99121,2.05417,0.47221,57
4.43377,1.82385,-0.759333,6
4.98098,2.04793,0.661263,51
4.97767,2.04555,-0.660776,51
4.98472,2.04744,0.853507,45
5.00221,2.0536,-0.473081,44
4.98536,2.04668,1.04754,54
4.98893,2.04713,-0.282614,59
4.97446,2.04018,1.24128,101
4.98463,2.04333,-0.0940336,48
4.97853,2.03982,1.44162,58
2.67939,1.09344,-0.775422,10
4.99709,2.03928,0.0942081,55
3.11261,1.2696,-0.776081,7
4.98986,2.03429,0.282405,48
3.66167,1.49206,-0.768579,6
4.98763,2.03135,0.471164,55
4.44408,1.80907,-0.759959,6
4.99546,2.03352,0.662238,51
4.98845,2.02966,-0.661263,53
4.99733,2.03225,0.854445,40
4.99643,2.03087,-0.471861,46
4.99647,2.02987,1.0483,57
5.0001,2.03033,-0.282824,55
4.97829,2.02046,1.24038,101
4.98802,2.02441,-0.0939638,46
4.97846,2.01952,1.43955,56
2.6814,1.08336,-0.774904,9
4.9934,2.01646,0.0939987,56
3.11724,1.25818,-0.776081,7
5.00434,2.01985,0.282824,49
3.65411,1.47413,-0.765907,6
4.99469,2.01393,0.471164,57
4.44121,1.78986,-0.758394,5
4.99735,2.01298,0.661507,50
4.99954,2.01285,-0.661751,54
5.00439,2.0148,0.854445,39
4.99979,2.01193,-0.471513,51
5.00353,2.01242,1.0483,54
5.0053,2.01212,-0.282719,57
4.99978,2.00889,1.24398,100
5.00619,2.01146,-0.0941732,46
4.98189,2.00069,1.43852,58
2.68875,1.07542,-0.77594,10
5.00006,1.99988,0.0939987,56
3.11054,1.2435,-0.773382,7
5.01136,2.00237,0.282824,46
3.67564,1.46792,-0.769342,6
5.00539,1.99796,0.471513,51
4.45262,1.77732,-0.759333,6
5.00031,1.99492,0.661019,50
5.00988,1.99773,-0.662238,51
5.00773,1.99586,0.853819,39
5.01419,1.99741,-0.47221,46
4.99923,1.99146,1.04602,57
5.00638,1.99329,-0.282405,55
5.00641,1.9923,1.24398,101
5.01318,1.99397,-0.0941732,48
4.99603,1.98614,1.44059,58
2.69949,1.06935,-0.77801,10
5.0033,1.98094,0.0939289,56
3.11848,1.23407,-0.774282,7
5.00903,1.9812,0.2823,51
3.67684,1.45428,-0.768579,8
5.0194,1.98428,0.47221,55
4.47166,1.76685,-0.761523,8
5.00355,1.976,0.660532,50
5.01313,1.97877,-0.661751,51
5.01834,1.97981,0.854445,35
5.02634,1.98297,-0.472733,44
5.01711,1.97832,1.0483,51
5.02074,1.97873,-0.282824,55
5.00065,1.96981,1.24083,100
5.02011,1.97647,-0.0941732,46
5.01552,1.97364,1.44421,60
2.7104,1.06274,-0.780081,10
5.02135,1.96784,0.0941383,56
3.13003,1.22602,-0.776081,7
5.01964,1.96515,0.28251,51
3.68189,1.44144,-0.768579,8
5.03001,1.9682,0.472558,55
4.47412,1.74979,-0.760897,8
5.02151,1.96286,0.661994,52
5.01631,1.95981,-0.661263,52
5.02154,1.96085,0.853819,35
5.03323,1.96541,-0.472733,44
5.02215,1.96008,1.04792,60
5.02762,1.9612,-0.282824,59
5.01294,1.95446,1.24218,101
5.01953,1.95603,-0.0940336,48
5.02057,1.95542,1.44369,56
2.69968,1.04768,-0.77594,9
5.03192,1.95175,0.0942081,59
3.13429,1.21508,-0.776081,7
5.03205,1.94978,0.282824,48
3.6869,1.42857,-0.768579,6
5.03127,1.94847,0.472035,58
4.4802,1.73416,-0.760897,8
5.03759,1.9489,0.663213,52
5.01941,1.94086,-0.660776,52
5.03204,1.94473,0.854445,35
5.02706,1.9428,-0.471513,40
5.03629,1.94536,1.04945,60
5.0307,1.9422,-0.282614,55
5.027,1.93976,1.24398,101
5.01886,1.93561,-0.0938939,48
5.02196,1.9358,1.44214,53
2.71414,1.04241,-0.779045,10
5.0275,1.92988,0.0939987,57
3.13487,1.20274,-0.775181,7
5.03883,1.93221,0.282824,46
3.6937,1.4164,-0.76896,6
5.0306,1.92805,0.471338,56
4.47332,1.71356,-0.758707,8
5.03509,1.92775,0.661994,49
5.04841,1.93184,-0.6637,48
5.0388,1.92715,0.854445,37
5.03567,1.92595,-0.471687,44
5.03755,1.92567,1.0483,52
5.04678,1.92819,-0.283138,57
5.03374,1.9222,1.24398,101
5.0368,1.92236,-0.0941034,46
5.02508,1.91688,1.4411,60
2.70693,1.02881,-0.77594,9
5.03981,1.91445,0.0941034,60
3.1263,1.18695,-0.772032,6
5.05081,1.91762,0.283138,51
3.69128,1.40071,-0.767434,8
5.04289,1.9126,0.471861,57
4.48666,1.70074,-0.759959,6
5.03808,1.90876,0.661507,49
5.05141,1.9128,-0.663213,50
5.05624,1.91463,0.856322,35
5.05168,1.9119,-0.472558,46
5.03689,1.90529,1.04678,57
5.04414,1.90703,-0.282614,61
5.04771,1.90737,1.24578,101
5.04315,1.90565,-0.0941034,46
5.03864,1.90294,1.44318,60
2.72497,1.02479,-0.780081,10
5.05175,1.89983,0.0942081,57
3.13022,1.17657,-0.772032,7
5.04252,1.89435,0.2823,51
3.71269,1.39403,-0.770868,6
5.057,1.89778,0.472558,57
4.49597,1.68724,-0.760584,8
5.04438,1.89204,0.661507,49
5.04657,1.89186,-0.661751,51
5.0592,1.89558,0.855697,37
5.06019,1.89495,-0.472733,44
5.04686,1.88996,1.04754,52
5.0467,1.88889,-0.282405,59
5.04306,1.88653,1.24308,101
5.05164,1.88873,-0.0941383,45
5.04887,1.88669,1.44421,64
2.7193,1.01238,-0.777492,11
5.06022,1.88289,0.094243,57
3.14344,1.16903,-0.774282,7
5.05471,1.87883,0.282614,46
3.69337,1.37282,-0.765907,6
5.07073,1.88378,0.473256,57
4.50184,1.67153,-0.760584,6
5.0584,1.87718,0.662482,49
5.06059,1.87699,-0.662726,51
5.06208,1.87654,0.855071,37
5.06644,1.87816,-0.472733,46
5.07,1.87847,1.05098,49
5.0645,1.87542,-0.283033,54
5.05692,1.87162,1.24488,75
5.05633,1.87039,-0.0941034,46
5.06448,1.8724,1.4468,62
2.71557,1.00021,-0.775422,10
5.07239,1.86729,0.0943477,56
3.1475,1.15805,-0.774282,7
5.06874,1.86393,0.283033,48
3.71656,1.36669,-0.769724,6
5.06606,1.86194,0.47221,55
4.51877,1.6599,-0.762462,6
5.06865,1.86088,0.662969,52
5.06711,1.85931,-0.662726,50
5.06489,1.8575,0.854445,37
5.06549,1.85772,-0.472035,46
5.07468,1.86008,1.05059,54
5.07101,1.85774,-0.283033,61
5.07075,1.85663,1.24668,46
5.05907,1.85136,-0.0940336,46
5.0601,1.85073,1.44369,60
2.71904,0.990727,-0.775422,10
5.07324,1.84751,0.094243,60
3.15152,1.14706,-0.774282,7
5.07897,1.84759,0.283242,46
3.725,1.35505,-0.770487,6
5.07627,1.84561,0.472558,55
4.51711,1.64141,-0.76121,8
5.08258,1.84589,0.663944,50
5.0773,1.84297,-0.663213,50
5.08248,1.84385,0.856322,34
5.07194,1.84002,-0.472035,40
5.07745,1.84102,1.04983,51
5.07934,1.8407,-0.283138,57
5.08086,1.84025,1.24758,43
5.07114,1.83573,-0.0941383,48
5.07016,1.83437,1.44473,59
2.72976,0.983849,-0.777492,11
5.07214,1.82708,0.0941034,58
3.14084,1.13077,-0.770682,7
5.08539,1.82985,0.283242,45
3.72417,1.34005,-0.769342,6
5.08268,1.82787,0.472558,51
4.51909,1.6243,-0.760584,6
5.07591,1.82344,0.662238,51
5.09118,1.82792,-0.664188,49
5.08517,1.82476,0.855697,37
5.08396,1.82433,-0.472558,40
5.08015,1.82196,1.04907,52
5.07634,1.81959,-0.282614,54
5.09092,1.82382,1.24848,43
5.0794,1.81869,-0.0941732,45
5.07835,1.81731,1.44525,64
2.73681,0.975611,-0.778528,11
5.08602,1.81205,0.094243,54
3.15578,1.12372,-0.773382,7
5.08045,1.80807,0.282614,46
3.72512,1.32572,-0.768579,6
5.09654,1.81279,0.473256,51
4.53404,1.61183,-0.762149,8
5.08412,1.80637,0.662482,48
5.09378,1.80881,-0.6637,49
5.09151,1.807,0.855697,37
5.1,1.80901,-0.47343,44
5.09018,1.80553,1.04983,57
5.09019,1.80453,-0.283033,59
5.09175,1.80408,1.24713,45
5.0876,1.80161,-0.0942081,45
5.09377,1.8028,1.44783,60
2.74037,0.965574,-0.778528,11
5.09797,1.79628,0.0943477,55
3.15785,1.11205,-0.772932,6
5.0905,1.79165,0.282824,46
3.73366,1.31336,-0.769342,6
5.10127,1.79344,0.473081,52
4.54737,1.59782,-0.7634,8
5.09413,1.78993,0.662969,50
5.10007,1.79102,-0.6637,49
5.09778,1.78921,0.855697,37
5.11004,1.79252,-0.473779,46
5.10788,1.79076,1.05212,52
5.10431,1.7885,-0.283452,55
5.10016,1.78605,1.24758,43
5.09197,1.78319,-0.0941732,46
5.10004,1.78501,1.44783,56
2.7273,0.950284,-0.773869,10
5.10074,1.77627,0.0942779,56
3.16558,1.10175,-0.773832,6
5.1005,1.77518,0.283033,45
3.73266,1.29839,-0.768197,8
5.10185,1.77366,0.472558,51
4.55852,1.58388,-0.764339,8
5.11191,1.77515,0.664432,47
5.11035,1.77361,-0.664188,49
5.104,1.77141,0.855697,35
5.10309,1.7701,-0.472558,40
5.11781,1.7742,1.05288,52
5.11429,1.77198,-0.283661,55
5.10821,1.76888,1.24803,45
5.09817,1.7654,-0.0941732,45
5.10441,1.76656,1.44732,60
2.73791,0.943274,-0.77594,10
5.10472,1.75869,0.094243,57
3.18028,1.09506,-0.776531,6
5.11799,1.76127,0.283661,48
3.74459,1.28791,-0.769724,6
5.10801,1.75584,0.472558,51
4.54507,1.56233,-0.76121,9
5.11402,1.75691,0.663944,49
5.11996,1.75795,-0.664675,49
5.11389,1.75486,0.856322,37
5.11678,1.75486,-0.473256,40
5.11252,1.7534,1.05059,52
5.12014,1.75502,-0.283661,54
5.11589,1.75256,1.24848,43
5.11187,1.75018,-0.0943128,46
5.10506,1.74686,1.44576,56
2.74102,0.934189,-0.77594,9
5.11272,1.74151,0.0942779,56
3.15825,1.07516,-0.770232,6
5.12759,1.74558,0.28387,45
3.7507,1.27611,-0.770105,6
5.1289,1.74402,0.473953,57
4.54675,1.54519,-0.760584,8
5.11636,1.73777,0.663457,49
5.12982,1.74134,-0.665163,48
5.1309,1.74171,0.8582,37
5.12634,1.73916,-0.473604,40
5.11861,1.73554,1.05059,54
5.11867,1.73457,-0.283242,53
5.13859,1.74032,1.25253,38
5.11954,1.73386,-0.0943477,43
5.11998,1.73302,1.44835,62
2.75159,0.927082,-0.77801,10
5.12794,1.72773,0.0944524,54
3.15811,1.06343,-0.769333,6
5.1204,1.72321,0.283138,43
3.757,1.26364,-0.770487,6
5.14062,1.72801,0.474476,56
4.57619,1.53828,-0.764652,8
5.12586,1.72206,0.663944,47
5.12804,1.72179,-0.664188,49
5.1407,1.72504,0.858825,37
5.13805,1.72316,-0.474127,40
5.12806,1.71981,1.05136,52
5.12818,1.71885,-0.283452,53
5.1314,1.71894,1.24938,37
5.13504,1.71916,-0.0945222,45
5.12783,1.71575,1.44887,62
2.75114,0.916252,-0.776975,10
5.14183,1.71145,0.094592,54
3.17308,1.05554,-0.772032,6
5.13237,1.70632,0.283452,46
3.75393,1.24804,-0.76896,6
5.14284,1.7088,0.474127,52
4.5893,1.52399,-0.765903,8
5.1359,1.70451,0.664432,47
5.13808,1.70423,-0.664675,48
5.13573,1.70246,0.856948,39
5.14403,1.70521,-0.474127,44
5.1511,1.70656,1.05479,49
5.13824,1.7013,-0.283661,54
5.13951,1.70073,1.24983,40
5.12422,1.69467,-0.0942081,39
5.13591,1.69755,1.44939,58
2.75066,0.905434,-0.77594,9
5.14777,1.6935,0.094592,54
3.18044,1.04568,-0.772932,6
5.14398,1.69026,0.283766,40
3.76572,1.23738,-0.770487,6
5.14688,1.69022,0.473953,55
4.5777,1.50242,-0.763087,8
5.15314,1.69028,0.665894,47
5.14777,1.68752,-0.665163,48
5.14915,1.68698,0.8582,37
5.14238,1.68476,-0.47343,40
5.15516,1.68796,1.05441,51
5.14794,1.6846,-0.28387,55
5.15283,1.6852,1.25163,40
5.14151,1.68051,-0.0944175,45
5.1363,1.67781,1.44783,56
2.75747,0.897023,-0.776975,10
5.14794,1.67366,0.0944873,51
3.18408,1.03457,-0.772932,6
5.15555,1.67415,0.28408,39
3.76442,1.22241,-0.769342,8
5.15275,1.67224,0.473953,55
4.57916,1.48521,-0.762462,6
5.15523,1.67106,0.665407,48
5.16119,1.67199,-0.666138,48
5.16253,1.67143,0.859451,37
5.15581,1.66926,-0.474127,44
5.15542,1.66814,1.05327,49
5.15949,1.66846,-0.284184,52
5.16239,1.6684,1.25253,40
5.15686,1.66562,-0.094592,45
5.14948,1.66224,1.4499,56
2.75875,0.8868,-0.776457,11
5.15756,1.65691,0.0945571,51
3.17282,1.01868,-0.769333,6
5.17087,1.65919,0.284603,40
3.76866,1.20926,-0.769342,6
5.17184,1.6585,0.475173,56
4.57867,1.46741,-0.761523,8
5.15347,1.65063,0.664432,50
5.17455,1.65639,-0.667113,47
5.16833,1.6534,0.859451,39
5.1654,1.65247,-0.474476,40
5.15934,1.64953,1.05288,51
5.15387,1.64679,-0.283556,51
5.17004,1.65096,1.25298,41
5.16454,1.64822,-0.0946269,45
5.15893,1.64543,1.45094,56
2.76367,0.877749,-0.776975,11
5.17094,1.64131,0.0946968,55
3.18751,1.01114,-0.772032,6
5.16521,1.63751,0.283975,40
3.78409,1.19966,-0.771632,8
5.18519,1.64285,0.47587,56
4.59506,1.45499,-0.7634,8
5.16677,1.63503,0.665407,48
5.17273,1.63592,-0.666138,47
5.17784,1.63654,0.860077,39
5.18444,1.63863,-0.475696,38
5.17068,1.63329,1.05403,49
5.16721,1.6312,-0.283975,52
5.16648,1.62997,1.25073,40
5.17408,1.63138,-0.0946968,43
5.16464,1.62742,1.45094,58
2.76303,0.866941,-0.77594,9
5.18045,1.62445,0.0947666,51
3.18358,0.997673,-0.770232,6
5.17089,1.61947,0.283975,39
3.77889,1.18351,-0.769724,10
5.18519,1.62295,0.475347,51
4.602,1.43953,-0.763713,6
5.17624,1.61817,0.665894,47
5.17841,1.61786,-0.666138,48
5.1722,1.61493,0.8582,39
5.19393,1.62171,-0.476045,38
5.1876,1.61874,1.05632,45
5.18812,1.61791,-0.284812,52
5.17213,1.61193,1.25073,40
5.17592,1.61212,-0.0946269,35
5.18136,1.61282,1.45405,56
2.76973,0.858434,-0.776975,10
5.188,1.60695,0.0948015,52
3.21124,0.994046,-0.776081,7
5.18224,1.60318,0.284289,36
3.79425,1.17379,-0.772013,8
5.18131,1.6019,0.474476,50
4.61266,1.42521,-0.764652,5
5.19323,1.6036,0.667357,47
5.18782,1.60094,-0.666625,51
5.18536,1.59919,0.859451,34
5.19004,1.60063,-0.475173,40
5.19697,1.60178,1.05708,45
5.19756,1.60096,-0.285022,51
5.19263,1.59846,1.25433,36
5.17961,1.59346,-0.094592,28
5.17588,1.59132,1.45094,58
2.75793,0.844239,-0.772834,9
5.18593,1.58649,0.0946619,49
3.20724,0.980551,-0.774282,7
5.20118,1.58917,0.285022,34
3.78518,1.15653,-0.769342,6
5.19258,1.58555,0.474999,49
4.61194,1.40737,-0.763713,6
5.195,1.58431,0.666869,47
5.20477,1.58629,-0.668088,48
5.19847,1.58338,0.860703,37
5.18988,1.58076,-0.47465,36
5.19877,1.58248,1.05632,45
5.2012,1.58223,-0.284917,49
5.20377,1.58202,1.25568,41
5.19662,1.57885,-0.0948015,31
5.18695,1.57493,1.45249,64
2.77196,0.83796,-0.77594,9
5.19909,1.57069,0.0948015,52
3.19758,0.965408,-0.771132,6
5.20642,1.57191,0.285022,36
3.7798,1.14047,-0.767434,6
5.20762,1.57029,0.47587,52
4.62061,1.39241,-0.764339,6
5.2005,1.56616,0.666869,46
5.21761,1.57132,-0.669063,45
5.21504,1.56955,0.86258,34
5.20681,1.56608,-0.475696,34
5.20426,1.56433,1.05632,43
5.19713,1.56119,-0.284394,48
5.20712,1.56419,1.25523,33
5.2114,1.56449,-0.094976,33
5.19029,1.55716,1.45197,59
2.76917,0.827104,-0.774387,10
5.21194,1.55573,0.0949411,49
3.18956,0.951457,-0.768433,7
5.20395,1.55236,0.284603,34
3.80802,1.13522,-0.772395,6
5.22617,1.557,0.477091,55
4.6233,1.37651,-0.764026,5
5.19805,1.54664,0.665894,46
5.21898,1.55287,-0.668575,45
5.22401,1.55337,0.863205,37
5.21961,1.55108,-0.476393,36
5.21319,1.54818,1.05708,49
5.20802,1.54565,-0.284708,52
5.21228,1.54692,1.25523,36
5.2204,1.54834,-0.0950458,35
5.20283,1.54214,1.45405,56
2.7756,0.81901,-0.775422,10
5.23241,1.54296,0.0952203,52
3.22074,0.949137,-0.775181,7
5.22274,1.53813,0.285336,36
3.79669,1.11815,-0.769342,6
5.22939,1.53909,0.476916,50
4.63353,1.36284,-0.764965,8
5.2222,1.535,0.668332,42
5.22056,1.53352,-0.668088,46
5.22561,1.53402,0.86258,32
5.23046,1.53544,-0.476916,34
5.22583,1.53309,1.05861,43
5.21695,1.5295,-0.284917,52
5.21765,1.52871,1.25523,36
5.21617,1.52729,-0.0948713,28
5.2156,1.52614,1.45612,56
2.77288,0.807696,-0.773869,9
5.23585,1.52413,0.0951854,50
3.21468,0.935166,-0.772932,7
5.23383,1.52156,0.28565,34
3.78361,1.09996,-0.765907,10
5.22899,1.51916,0.476393,51
4.63636,1.34611,-0.764652,8
5.23897,1.52008,0.669794,42
5.2297,1.5164,-0.668575,48
5.22713,1.51467,0.861954,32
5.23196,1.51607,-0.476568,34
5.23869,1.51702,1.06013,45
5.23185,1.51406,-0.28544,50
5.22857,1.51211,1.25658,37
5.22724,1.51074,-0.094976,26
5.21904,1.50739,1.4556,52
2.78496,0.800681,-0.776457,11
5.23537,1.50419,0.0950807,52
3.22729,0.926629,-0.775181,7
5.24679,1.50549,0.286068,33
3.80252,1.09107,-0.76896,8
5.24001,1.50255,0.476916,52
4.63344,1.32774,-0.7634,8
5.24424,1.50178,0.669794,42
5.24641,1.50141,-0.670038,50
5.23999,1.49858,0.863205,35
5.23914,1.49834,-0.476742,36
5.22885,1.49441,1.05708,46
5.25247,1.50017,-0.286278,54
5.24131,1.49599,1.25838,37
5.23056,1.49194,-0.0949411,30
5.22985,1.49075,1.45715,58
2.78031,0.788844,-0.774387,10
5.23866,1.48536,0.0950458,50
3.2155,0.911109,-0.771582,7
5.25586,1.48825,0.286278,34
3.80819,1.07833,-0.769342,8
5.25097,1.48588,0.477439,51
4.63804,1.31156,-0.7634,8
5.24563,1.48239,0.669306,43
5.25544,1.48417,-0.670525,48
5.25279,1.48243,0.864457,35
5.2616,1.48492,-0.478311,29
5.2416,1.47828,1.05861,45
5.24998,1.47966,-0.285859,47
5.25025,1.47875,1.25928,37
5.25498,1.47909,-0.0952901,30
5.22944,1.47092,1.4556,48
2.79421,0.78226,-0.777492,11
5.25922,1.47137,0.095325,50
3.20928,0.897254,-0.769333,6
5.24563,1.46559,0.28544,33
3.81572,1.06609,-0.770105,8
5.26572,1.47022,0.478311,52
4.65972,1.30014,-0.766216,8
5.24695,1.463,0.668819,46
5.25676,1.46475,-0.670038,48
5.26174,1.46515,0.865083,34
5.27276,1.46722,-0.478834,36
5.25429,1.46208,1.06013,43
5.24742,1.45919,-0.28544,50
5.24975,1.45885,1.25793,40
5.26396,1.46181,-0.09536,28
5.24571,1.45575,1.4587,52
2.80078,0.773041,-0.778528,11
5.26626,1.45353,0.09536,49
3.22178,0.888638,-0.771582,9
5.26227,1.45046,0.286068,34
3.81203,1.05001,-0.768579,6
5.27492,1.45197,0.478659,52
4.66255,1.28253,-0.765903,8
5.26351,1.44783,0.670281,45
5.26185,1.44639,-0.670038,50
5.26682,1.44677,0.865083,32
5.27401,1.44775,-0.478485,40
5.2634,1.44385,1.0609,43
5.272,1.44522,-0.286487,48
5.26258,1.44165,1.25973,48
5.26325,1.44184,-0.0952552,26
5.25635,1.43896,1.46026,56
2.79228,0.760215,-0.775422,10
5.27734,1.4358,0.0954647,48
3.23254,0.878869,-0.773382,9
5.26923,1.43261,0.286173,33
3.82514,1.03927,-0.770487,6
5.27995,1.43354,0.478659,56
4.67081,1.26728,-0.766529,8
5.27453,1.43009,0.671013,41
5.27477,1.42917,-0.671013,47
5.27565,1.42941,0.865708,34
5.27326,1.42777,-0.477962,31
5.27599,1.42752,1.06242,49
5.28472,1.4289,-0.286906,48
5.26946,1.42378,1.26018,43
5.27983,1.42659,-0.0954647,24
5.25201,1.41809,1.45767,52
2.79118,0.749461,-0.774387,10
5.284,1.41881,0.0954996,49
3.24297,0.870164,-0.775181,7
5.27998,1.41576,0.286487,34
3.81358,1.02184,-0.767434,6
5.28877,1.41614,0.479008,52
4.66353,1.24872,-0.764652,8
5.28307,1.41362,0.6715,41
5.29099,1.41475,-0.672475,47
5.28443,1.41201,0.866334,35
5.28591,1.41141,-0.478659,29
5.2788,1.40951,1.06204,40
5.29715,1.41342,-0.287324,48
5.28168,1.40831,1.26198,43
5.28285,1.40763,-0.0954298,26
5.2644,1.40173,1.45974,54
2.79739,0.741191,-0.775422,10
5.27925,1.3978,0.095325,48
3.21961,0.85186,-0.768883,7
5.29069,1.39885,0.286801,31
3.83972,1.01521,-0.772013,6
5.30307,1.40113,0.479879,57
4.67359,1.23394,-0.76559,8
5.28222,1.39365,0.670769,43
5.29974,1.39729,-0.672963,45
5.28932,1.39355,0.866334,34
5.30405,1.39743,-0.479879,25
5.27989,1.39008,1.06128,42
5.28853,1.39137,-0.286592,52
5.29222,1.39135,1.26333,40
5.30127,1.39274,-0.0956741,26
5.28047,1.38629,1.46285,54
2.8037,0.732399,-0.776457,11
5.29765,1.3829,0.0955694,48
3.22256,0.840615,-0.768883,7
5.28781,1.37836,0.286382,33
3.82994,0.99834,-0.769342,6
5.30215,1.38111,0.479357,52
4.67023,1.21563,-0.764339,8
5.29089,1.3762,0.671256,45
5.29305,1.37578,-0.6715,48
5.3018,1.37706,0.867586,37
5.30504,1.3779,-0.479531,25
5.29231,1.37361,1.06281,42
5.30495,1.37591,-0.28722,47
5.28573,1.36993,1.26063,45
5.30416,1.37373,-0.0956392,26
5.29463,1.37027,1.46543,51
2.81372,0.724534,-0.778528,11
5.316,1.36788,0.0958137,50
3.24058,0.833246,-0.772482,7
5.29452,1.36039,0.286487,31
3.8315,0.984475,-0.76896,8
5.32237,1.36655,0.480751,56
4.68592,1.20227,-0.766216,8
5.3072,1.36068,0.672719,46
5.30936,1.36025,-0.672963,46
5.29892,1.35659,0.866334,35
5.31754,1.36136,-0.480228,25
5.31039,1.35854,1.06548,43
5.32327,1.36084,-0.287952,54
5.29614,1.35293,1.26198,42
5.30505,1.35421,-0.0955694,30
5.30125,1.35226,1.46595,52
2.80874,0.712809,-0.776457,11
5.32462,1.3503,0.0958835,50
3.25102,0.823843,-0.774282,7
5.30505,1.34337,0.286801,31
3.8273,0.96917,-0.767434,8
5.32518,1.34748,0.480577,55
4.68626,1.18494,-0.76559,8
5.31192,1.34215,0.672719,48
5.31793,1.34268,-0.67345,48
5.31129,1.34002,0.867586,37
5.3126,1.34035,-0.479357,25
5.31319,1.33951,1.0651,42
5.32411,1.34128,-0.287743,43
5.31217,1.33728,1.26467,43
5.31556,1.33715,-0.0956741,26
5.29657,1.33139,1.46336,51
2.81496,0.703937,-0.777492,11
5.32542,1.33074,0.0958137,48
3.2501,0.811546,-0.773382,7
5.32327,1.32823,0.287534,30
3.82876,0.955328,-0.767052,8
5.32985,1.32888,0.480577,55
4.6827,1.16666,-0.764339,8
5.32813,1.32648,0.674181,46
5.33029,1.32603,-0.674425,49
5.3236,1.32338,0.868837,40
5.32304,1.32324,-0.479879,25
5.31593,1.32049,1.06471,43
5.33458,1.32413,-0.288057,46
5.32437,1.32061,1.26647,41
5.3299,1.32099,-0.0958486,24
5.29931,1.31243,1.46285,48
2.80614,0.691333,-0.774387,10
5.32615,1.31119,0.0957439,45
3.24345,0.797868,-0.771132,7
5.33563,1.31154,0.287952,30
3.85113,0.946642,-0.770868,8
5.33833,1.31122,0.480925,51
4.68291,1.14937,-0.763713,8
5.32694,1.30645,0.67345,39
5.33488,1.30741,-0.674425,46
5.33586,1.30666,0.870089,35
5.34698,1.30939,-0.481623,25
5.32051,1.30192,1.06471,43
5.34111,1.30597,-0.288162,54
5.32895,1.30202,1.26647,43
5.34225,1.30428,-0.0959882,24
5.31512,1.29667,1.46595,47
2.81593,0.683846,-0.776457,11
5.34407,1.29682,0.0959882,49
3.24797,0.787568,-0.771582,7
5.32636,1.29055,0.28722,33
3.85616,0.934327,-0.77125,6
5.35426,1.29632,0.481971,55
4.68477,1.13337,-0.7634,8
5.33704,1.29018,0.674181,46
5.33533,1.28878,-0.673937,48
5.34401,1.28989,0.870714,37
5.33967,1.28885,-0.480577,27
5.33052,1.28565,1.06586,42
5.34153,1.28732,-0.287952,46
5.33513,1.28479,1.26692,40
5.35044,1.28749,-0.096058,26
5.33066,1.28175,1.46906,54
2.82206,0.674914,-0.777492,11
5.35051,1.27862,0.0960231,48
3.25449,0.77713,-0.772482,7
5.33472,1.27288,0.287429,33
3.85367,0.919495,-0.770105,8
5.36457,1.27901,0.482494,56
4.70215,1.12021,-0.76559,8
5.35309,1.2743,0.675644,48
5.34366,1.27107,-0.674425,48
5.34848,1.27123,0.870714,32
5.35965,1.27388,-0.481971,27
5.34453,1.2693,1.06777,46
5.36542,1.27328,-0.288999,48
5.34527,1.26751,1.26827,41
5.3549,1.26881,-0.096058,26
5.34262,1.26491,1.47113,54
2.80559,0.66063,-0.772316,10
5.37246,1.26406,0.0963373,48
3.27236,0.769333,-0.776081,7
5.35274,1.25745,0.288162,30
3.84921,0.904243,-0.768579,6
5.35543,1.25709,0.481274,51
4.70026,1.10244,-0.764652,8
5.3691,1.25832,0.677106,45
5.36353,1.25603,-0.676375,51
5.35673,1.25345,0.87134,32
5.36018,1.25426,-0.481623,27
5.36231,1.25377,1.07044,42
5.37761,1.25636,-0.289418,48
5.35156,1.24929,1.26872,36
5.36903,1.25238,-0.0962326,24
5.33572,1.24362,1.46802,54
2.81541,0.652578,-0.774387,10
5.3632,1.24214,0.0960929,48
3.25604,0.753511,-0.771582,7
5.36488,1.24056,0.288581,34
3.85426,0.891244,-0.76896,8
5.37725,1.24242,0.482843,58
4.70023,1.08513,-0.764026,8
5.38507,1.24225,0.678569,57
5.37561,1.23908,-0.67735,48
5.37455,1.23785,0.87353,50
5.37424,1.23778,-0.482494,44
5.36474,1.23461,1.07006,72
5.39948,1.24161,-0.29036,66
5.37868,1.23584,1.27412,64
5.37337,1.23363,-0.0962326,50
5.34756,1.22672,1.47009,69
2.82144,0.643605,-0.775422,10
5.37725,1.22563,0.0962675,60
3.25105,0.740411,-0.769782,7
5.37502,1.22315,0.288895,54
3.86309,0.879091,-0.770105,6
5.38544,1.22453,0.483191,65
4.70399,1.06872,-0.764026,8
5.37195,1.21949,0.676375,56
5.38378,1.22119,-0.677837,64
5.38654,1.22083,0.874782,45
5.38241,1.21989,-0.482843,46
5.3671,1.21544,1.06968,64
5.38625,1.21879,-0.289418,63
5.37536,1.21534,1.27232,56
5.3913,1.21795,-0.0964769,44
5.35935,1.20975,1.47216,56
2.82932,0.635021,-0.776975,11
5.39711,1.21035,0.0965467,51
3.26883,0.732466,-0.773382,7
5.38705,1.20612,0.289313,37
3.86038,0.864313,-0.76896,8
5.38385,1.20442,0.482668,54
4.70962,1.05273,-0.764339,8
5.38199,1.20203,0.677106,45
5.3822,1.20109,-0.677106,46
5.3927,1.20245,0.875095,30
5.40997,1.2063,-0.484935,27
5.38664,1.20011,1.07273,51
5.38657,1.19911,-0.289209,49
5.38147,1.19699,1.27277,64
5.39747,1.19956,-0.0965118,36
5.37862,1.19438,1.4763,54
2.84095,0.627224,-0.779563,11
5.40325,1.19194,0.0965816,46
3.26565,0.719793,-0.772032,7
5.38733,1.18645,0.289104,33
3.85763,0.849566,-0.767815,6
5.40359,1.18905,0.484063,49
4.73063,1.0401,-0.767155,8
5.39391,1.18494,0.678081,50
5.39605,1.18443,-0.678325,47
5.38721,1.1815,0.87353,30
5.40442,1.18527,-0.484063,25
5.40038,1.1834,1.07464,43
5.39853,1.18201,-0.289627,45
5.38371,1.17778,1.27232,61
5.38599,1.17729,-0.0962326,34
5.38465,1.17601,1.47682,51
2.83935,0.616483,-0.778528,11
5.40738,1.17307,0.0965816,48
3.27576,0.710042,-0.773832,6
5.39729,1.16891,0.289418,34
3.85865,0.835679,-0.767434,8
5.40186,1.16891,0.48354,50
4.72844,1.02233,-0.766216,8
5.41353,1.16946,0.680031,45
5.40015,1.16558,-0.678325,47
5.3971,1.16394,0.874469,34
5.40463,1.16556,-0.483714,25
5.39681,1.16289,1.07311,46
5.41239,1.16526,-0.290151,43
5.40113,1.16185,1.27547,64
5.4018,1.161,-0.096442,28
5.38872,1.15721,1.47682,49
2.83015,0.60415,-0.775422,10
5.40362,1.15252,0.096442,48
3.27441,0.69779,-0.772932,7
5.41481,1.15392,0.290151,33
3.8673,0.823434,-0.768579,8
5.41371,1.15171,0.484237,52
4.73005,1.0054,-0.765903,8
5.40981,1.14891,0.679056,43
5.41584,1.1492,-0.679787,45
5.40866,1.14767,0.87572,34
5.41061,1.1471,-0.483889,25
5.40083,1.14405,1.07311,45
5.42424,1.14801,-0.290569,46
5.41659,1.14541,1.27817,64
5.40758,1.1435,-0.0964769,28
5.39442,1.13973,1.47734,52
2.83224,0.594266,-0.775422,10
5.41915,1.13706,0.0966514,38
3.26908,0.685327,-0.771132,6
5.41881,1.13501,0.290151,33
3.87208,0.81033,-0.76896,8
5.41769,1.1328,0.484237,50
4.72562,0.988094,-0.764652,8
5.40582,1.12934,0.678081,43
5.42351,1.13204,-0.680275,44
5.42037,1.1304,0.876972,34
5.42824,1.13105,-0.485109,27
5.41036,1.12733,1.07425,40
5.42801,1.13002,-0.290569,46
5.41654,1.12664,1.27727,63
5.4272,1.12787,-0.0967561,26
5.40593,1.12247,1.47941,46
2.84555,0.587213,-0.778528,11
5.42701,1.11894,0.0967212,40
3.27718,0.675094,-0.772482,7
5.41883,1.11528,0.289941,33
3.87474,0.797485,-0.76896,10
5.43118,1.11684,0.485109,51
4.74452,0.974776,-0.767155,5
5.41751,1.11205,0.679056,48
5.42354,1.11231,-0.679787,43
5.43589,1.11385,0.878849,34
5.43976,1.11465,-0.485806,25
5.41619,1.10883,1.07464,49
5.43584,1.11186,-0.290779,47
5.42044,1.10773,1.27727,64
5.42914,1.10852,-0.0967212,26
5.41739,1.10513,1.48148,47
2.84569,0.576893,-0.77801,11
5.43676,1.10118,0.0968259,43
3.26232,0.660171,-0.768433,6
5.42464,1.09675,0.290046,31
3.86211,0.780841,-0.765907,8
5.44481,1.09985,0.48598,50
4.74402,0.957426,-0.766529,8
5.43303,1.09549,0.680518,43
5.42933,1.09376,-0.680031,41
5.43006,1.09292,0.877285,27
5.44558,1.09604,-0.48598,23
5.43542,1.09301,1.07769,45
5.43773,1.09249,-0.290674,45
5.4281,1.08957,1.27817,63
5.42906,1.08877,-0.0966514,26
5.43258,1.0885,1.48459,46
2.842,0.565825,-0.776457,11
5.44449,1.08298,0.0968958,42
3.2799,0.651818,-0.772032,6
5.43628,1.07937,0.290465,34
3.86481,0.767358,-0.765907,8
5.43884,1.07889,0.485109,51
4.75703,0.942782,-0.768093,6
5.44461,1.07806,0.681493,45
5.4448,1.07711,-0.681493,44
5.43384,1.07396,0.877285,27
5.44937,1.07703,-0.48598,23
5.44113,1.07442,1.07807,52
5.45131,1.07543,-0.291197,43
5.43569,1.07137,1.27907,63
5.43871,1.07098,-0.0967561,28
5.42307,1.06691,1.48096,51
2.84396,0.555901,-0.776457,11
5.44627,1.06358,0.0968609,45
3.28598,0.641111,-0.772932,6
5.44589,1.06153,0.290779,33
3.87517,0.755364,-0.767434,10
5.44649,1.06066,0.485457,47
4.74284,0.922774,-0.765278,5
5.45614,1.06057,0.682468,46
5.45437,1.05924,-0.682225,44
5.44919,1.05724,0.879162,22
5.46092,1.05952,-0.486678,23
5.44292,1.05504,1.07769,45
5.47464,1.0602,-0.292244,46
5.44705,1.05387,1.28087,63
5.45223,1.05388,-0.0969307,28
5.43246,1.04907,1.48252,48
2.84967,0.546699,-0.777492,11
5.4637,1.0472,0.0971052,41
3.27288,0.626704,-0.769333,6
5.46526,1.04552,0.291616,31
3.88164,0.742571,-0.768197,12
5.45016,1.04165,0.485457,49
4.74409,0.905841,-0.764965,6
5.45201,1.04003,0.681493,46
5.46194,1.04093,-0.682712,45
5.46838,1.04117,0.881665,19
5.47046,1.04157,-0.487201,27
5.44657,1.03604,1.07769,43
5.46653,1.03884,-0.291616,46
5.45644,1.03594,1.28222,60
5.4716,1.03783,-0.0972099,26
5.44937,1.03262,1.48614,49
2.84777,0.536033,-0.776457,11
5.46339,1.02738,0.0970354,41
3.26739,0.613837,-0.767533,6
5.46102,1.02496,0.291197,33
3.88614,0.729378,-0.768579,12
5.4753,1.02665,0.487375,43
4.74722,0.889277,-0.764965,8
5.45951,1.02172,0.681981,47
5.45773,1.0204,-0.681737,43
5.47004,1.02171,0.881352,21
5.47602,1.02283,-0.487375,25
5.45594,1.0181,1.07883,40
5.47601,1.02085,-0.29193,48
5.45236,1.01546,1.28042,61
5.47715,1.01909,-0.0972448,24
5.46624,1.01607,1.48976,43
2.86102,0.528194,-0.779563,11
5.48071,1.01085,0.0972797,43
3.28101,0.604547,-0.770232,6
5.46849,1.00662,0.291407,31
3.87322,0.712964,-0.765526,12
5.47885,1.00754,0.487375,46
4.76196,0.874841,-0.766842,6
5.47475,1.0048,0.683443,42
5.46907,1.00278,-0.682712,47
5.4658,1.00119,0.8801,22
5.48365,1.00347,-0.487724,23
5.47491,1.00187,1.08189,39
5.48151,1.00209,-0.292035,46
5.47312,0.999569,1.28447,37
5.48264,1.00032,-0.0972797,26
5.46785,0.996637,1.48924,58
2.84012,0.513578,-0.773351,10
5.49011,0.992774,0.0973844,42
3.28886,0.594131,-0.771582,7
5.48377,0.98965,0.292035,31
3.8874,0.700854,-0.767815,12
5.47662,0.98639,0.486852,47
4.75152,0.854934,-0.764652,8
5.48214,0.986392,0.683931,42
5.48426,0.985787,-0.684175,47
5.46926,0.982104,0.8801,22
5.48712,0.984323,-0.487724,25
5.49014,0.983877,1.08418,42
5.49104,0.983049,-0.292349,45
5.53238,0.989453,1.29752,48
5.4861,0.981176,-0.0972797,26
2.85712,0.506359,-0.777492,11
5.48977,0.971949,0.0973146,41
3.28909,0.581731,-0.771132,6
5.49309,0.971544,0.292349,33
3.87435,0.684548,-0.764763,12
5.48396,0.967958,0.487201,49
4.7642,0.840056,-0.766216,6
5.49353,0.967671,0.684906,42
5.49957,0.967745,-0.685637,43
5.48432,0.965062,0.881978,21
5.49444,0.965852,-0.488072,23
5.48581,0.963349,1.08265,42
5.50034,0.964912,-0.292663,43
5.54924,0.972489,1.30067,49
5.4954,0.963054,-0.0973844,26
5.99607,1.04972,1.63108,4
2.85887,0.496382,-0.777492,11
5.49297,0.953737,0.0973146,40
3.28524,0.569822,-0.769782,7
5.50825,0.954414,0.292977,28
3.89413,0.674033,-0.768197,10
5.49516,0.950166,0.487898,47
4.75918,0.822908,-0.764965,8
5.4928,0.948774,0.684418,42
5.49688,0.948488,-0.684906,40
5.49545,0.947253,0.883229,21
5.50367,0.947685,-0.488595,27
5.49284,0.94582,1.08341,40
5.49761,0.94565,-0.292349,45
5.56204,0.955733,1.30292,41
5.50464,0.944885,-0.0974891,28
6.00922,1.03041,1.63367,4
2.8624,0.487223,-0.77801,11
5.51006,0.936902,0.097559,38
3.2949,0.559657,-0.771582,7
5.49974,0.933174,0.292349,30
3.8886,0.659802,-0.766671,10
5.51792,0.935266,0.489641,42
4.76007,0.805961,-0.764652,5
5.49999,0.930256,0.684906,43
5.49624,0.928631,-0.684418,41
5.51041,0.930038,0.885106,21
5.52054,0.931748,-0.489815,27
5.50192,0.927619,1.08456,37
5.50678,0.927447,-0.292663,43
5.56342,0.93599,1.30247,50
5.5158,0.926988,-0.0976288,26
6.02231,1.01103,1.63625,4
2.87361,0.478817,-0.780598,11
5.52908,0.920293,0.0978382,42
3.29106,0.547193,-0.770232,7
5.5069,0.914624,0.292558,28
3.87926,0.644294,-0.764381,10
5.52312,0.916329,0.489815,46
4.76675,0.789985,-0.765278,5
5.51104,0.912347,0.685881,45
5.50728,0.91074,-0.685393,38
5.50388,0.909187,0.883542,24
5.53752,0.914744,-0.491035,27
5.52256,0.911283,1.08799,40
5.51787,0.909523,-0.293081,42
5.98199,0.984949,1.39965,100
5.51111,0.906429,-0.0974891,26
6.03152,0.990945,1.63781,4
2.85811,0.465985,-0.77594,10
5.53423,0.901308,0.0978731,40
3.30065,0.536955,-0.772032,6
5.52583,0.89796,0.293395,36
3.88536,0.631379,-0.765144,10
5.52038,0.896085,0.489292,42
4.76558,0.772712,-0.764652,5
5.52007,0.894057,0.686612,39
5.51827,0.892777,-0.686368,38
5.50507,0.889652,0.883229,21
5.53084,0.893818,-0.490164,24
5.52958,0.892627,1.08876,42
5.53678,0.892798,-0.293919,43
6.02579,0.970568,1.40909,93
5.52213,0.888458,-0.0976288,26
6.03685,0.97019,1.63832,4
2.8559,0.455396,-0.774904,10
5.53142,0.881042,0.0977684,36
3.30058,0.525123,-0.771582,7
5.53682,0.879918,0.293814,28
3.88366,0.617196,-0.764381,10
5.52348,0.876811,0.489292,42
4.7624,0.755143,-0.763713,6
5.53492,0.876645,0.688074,41
5.53704,0.875992,-0.688318,37
5.5296,0.873826,0.886671,19
5.5418,0.875754,-0.490861,24
5.53266,0.873318,1.08876,39
5.54776,0.874711,-0.294337,40
6.03492,0.950442,1.41044,100
5.53903,0.871351,-0.0978731,24
6.05165,0.950909,1.64143,4
2.86702,0.446914,-0.777492,11
5.53841,0.862342,0.0978382,40
3.28891,0.511502,-0.768433,6
5.54958,0.863088,0.294337,33
3.89161,0.60454,-0.765526,8
5.54029,0.859662,0.490513,46
4.765,0.738514,-0.763713,6
5.5301,0.856106,0.687099,41
5.54791,0.857871,-0.689293,34
5.54223,0.856992,0.888235,21
5.54876,0.857011,-0.49121,24
5.52986,0.853103,1.08761,37
5.54288,0.854122,-0.293919,42
6.05361,0.93174,1.41404,98
5.55968,0.855717,-0.0981872,26
6.06622,0.932598,1.64454,4
2.87047,0.437194,-0.77801,10
5.55904,0.846682,0.0981523,37
3.29059,0.500592,-0.768433,6
5.53873,0.841612,0.293605,30
3.89952,0.591837,-0.766671,8
5.55113,0.841511,0.49121,36
4.76547,0.722411,-0.7634,5
5.54469,0.839547,0.688562,39
5.53894,0.837688,-0.687831,37
5.54909,0.83823,0.888861,21
5.56157,0.839124,-0.492081,24
5.55013,0.837398,1.09105,39
5.55753,0.837524,-0.294547,37
6.04895,0.910498,1.41224,98
5.55472,0.835117,-0.0980476,22
6.08091,0.91314,1.64764,4
2.87573,0.428241,-0.779045,10
5.56987,0.82845,0.098292,41
3.30388,0.490821,-0.771132,6
5.55152,0.823737,0.294128,31
3.88593,0.576596,-0.763618,10
5.56769,0.825144,0.49243,49
4.76406,0.705194,-0.762775,8
5.55151,0.820766,0.689049,39
5.54969,0.819507,-0.688806,37
5.54417,0.817703,0.887609,21
5.57812,0.82271,-0.493302,24
5.56661,0.820021,1.09372,39
5.56833,0.819281,-0.294965,38
6.05788,0.890229,1.41359,93
5.56354,0.816592,-0.0981523,24
6.0917,0.893027,1.64971,4
2.8772,0.418201,-0.779045,11
5.57668,0.809576,0.0983618,42
3.31329,0.480405,-0.772932,6
5.56226,0.8055,0.294547,33
3.88597,0.562748,-0.763236,6
5.5587,0.803994,0.491384,42
4.75867,0.687432,-0.761523,5
5.56417,0.802801,0.690268,45
5.5702,0.80268,-0.690999,31
5.55481,0.799472,0.888861,21
5.57701,0.802668,-0.492953,24
5.57721,0.801701,1.09524,36
5.57906,0.800975,-0.295384,39
6.06867,0.870186,1.41539,96
5.56635,0.797165,-0.0981523,24
6.09287,0.871486,1.64919,4
2.86908,0.406798,-0.776457,11
5.57354,0.789262,0.098257,37
3.31109,0.468291,-0.772032,7
5.57889,0.788033,0.29528,31
3.89763,0.550552,-0.765144,8
5.56148,0.784584,0.491384,38
4.75517,0.669991,-0.760584,6
5.58069,0.785309,0.691974,38
5.5828,0.784611,-0.692218,36
5.5693,0.781726,0.890738,21
5.57978,0.783197,-0.492953,24
5.5722,0.781138,1.09372,30
5.58578,0.782048,-0.295594,40
6.08132,0.850347,1.41764,82
5.58296,0.779667,-0.0983967,26
6.10353,0.851278,1.65127,4
2.8724,0.397046,-0.776975,10
5.58814,0.771444,0.0984665,40
3.30112,0.455133,-0.769333,6
5.59348,0.77019,0.295908,31
3.88786,0.535337,-0.762854,5
5.59379,0.769239,0.493999,45
4.7614,0.653924,-0.76121,6
5.5893,0.766634,0.692705,42
5.59337,0.766197,-0.693193,37
5.58765,0.764421,0.893241,21
5.59432,0.765333,-0.493999,24
5.56517,0.760353,1.09181,33
5.58452,0.762006,-0.295384,37
6.10163,0.831481,1.42169,65
5.59556,0.761521,-0.0985712,24
6.11603,0.83127,1.65385,4
2.87568,0.387275,-0.777492,11
5.60666,0.754064,0.0987457,42
3.2911,0.442049,-0.766633,6
5.59019,0.749865,0.295594,33
3.90527,0.523851,-0.765907,8
5.59249,0.749177,0.49365,39
4.76169,0.637037,-0.760897,5
5.58604,0.746332,0.691974,38
5.59207,0.746142,-0.692705,33
5.59812,0.745954,0.894492,26
5.60697,0.74614,-0.49487,22
5.5892,0.743775,1.09601,36
5.59506,0.743559,-0.295803,39
6.09097,0.808381,1.41854,54
5.60413,0.742776,-0.0986759,24
6.1323,0.811689,1.65748,4
2.87325,0.376232,-0.776457,11
5.6152,0.735271,0.0988504,42
3.30808,0.432581,-0.770232,6
5.59674,0.730863,0.295803,31
3.89354,0.507754,-0.763236,8
5.60508,0.729963,0.494522,42
4.75224,0.618053,-0.75902,5
5.6083,0.729387,0.694412,37
5.59858,0.727127,-0.693193,37
5.59873,0.726156,0.894179,19
5.62139,0.728097,-0.495916,22
5.60162,0.724539,1.09792,36
5.6136,0.725095,-0.29664,37
6.10742,0.787798,1.42169,35
5.60272,0.722696,-0.0986061,22
6.14085,0.791017,1.65903,4
2.87071,0.365711,-0.775422,10
5.61984,0.714934,0.0988853,37
3.29998,0.419226,-0.767983,7
5.60718,0.71233,0.296222,31
3.89334,0.493916,-0.762854,7
5.60166,0.70964,0.493999,37
4.77593,0.604189,-0.762462,6
5.62275,0.71032,0.695874,37
5.61697,0.708591,-0.695143,41
5.59927,0.706359,0.893867,21
5.61797,0.707722,-0.495393,24
5.6158,0.706456,1.1002,33
5.62006,0.705992,-0.29685,39
6.12173,0.767928,1.42439,21
5.6191,0.704876,-0.0988504,24
6.14549,0.769821,1.65955,4
2.87197,0.355687,-0.775422,10
5.62615,0.696786,0.0989551,38
3.32649,0.41139,-0.773832,7
5.62351,0.694465,0.296954,28
3.91842,0.483205,-0.767434,8
5.6219,0.692278,0.495568,42
4.76026,0.586176,-0.759646,8
5.62507,0.691669,0.695874,33
5.6311,0.691413,-0.696605,37
5.61739,0.688737,0.89637,21
5.63029,0.689319,-0.496265,24
5.61032,0.686873,1.09868,36
5.63426,0.688807,-0.297478,40
6.13779,0.74928,1.42754,12
5.62947,0.686226,-0.0989901,24
6.14047,0.747429,1.65748,4
2.87697,0.346623,-0.776457,11
5.63649,0.6781,0.0990948,40
3.31823,0.398613,-0.771582,7
5.64176,0.676733,0.297792,24
3.89856,0.467635,-0.763236,8
5.63999,0.675525,0.496962,42
4.77208,0.570727,-0.76121,8
5.6314,0.672499,0.696361,31
5.63743,0.672224,-0.697093,36
5.63349,0.670758,0.89856,21
5.64442,0.672059,-0.497311,22
5.61658,0.667748,1.09944,33
5.63465,0.668901,-0.297373,41
6.15198,0.729225,1.43024,11
5.63183,0.66657,-0.0989901,24
6.16606,0.728712,1.66369,4
2.87816,0.33658,-0.776457,11
5.64677,0.659347,0.0992344,40
3.30799,0.385673,-0.768883,7
5.62822,0.655192,0.296954,24
3.90212,0.454254,-0.763618,8
5.64232,0.655832,0.496962,49
4.7662,0.553154,-0.759959,6
5.62385,0.651699,0.695143,33
5.63579,0.652084,-0.696605,38
5.63776,0.651314,0.898873,21
5.65663,0.653494,-0.498182,24
5.63253,0.649717,1.10211,36
5.63893,0.649455,-0.297478,40
6.15061,0.7073,1.42934,10
5.64604,0.648277,-0.0991995,24
6.17816,0.708283,1.66628,4
2.88316,0.326966,-0.777492,11
5.65897,0.640758,0.0994089,37
3.32093,0.375438,-0.771582,7
5.64238,0.636884,0.297582,27
3.90173,0.440409,-0.763236,6
5.64853,0.636578,0.497311,42
4.77792,0.537619,-0.761523,8
5.64779,0.634501,0.697824,38
5.64593,0.633291,-0.69758,38
5.64589,0.632292,0.899811,24
5.66481,0.634411,-0.498705,22
5.65037,0.631795,1.10517,37
5.65308,0.631096,-0.298106,39
6.16273,0.686906,1.43159,10
5.65224,0.629008,-0.0992693,24
6.18636,0.687351,1.66783,4
2.87276,0.315635,-0.774387,10
5.66515,0.621438,0.0994787,37
3.32804,0.364479,-0.772932,7
5.65648,0.618488,0.29821,24
3.90129,0.426574,-0.762854,5
5.64874,0.616644,0.497136,41
4.77191,0.52008,-0.760272,5
5.66576,0.616501,0.699774,31
5.65995,0.614867,-0.699043,41
5.64806,0.612578,0.899811,21
5.66501,0.614417,-0.498531,24
5.66035,0.612912,1.10669,36
5.67113,0.613078,-0.298943,38
6.17671,0.666643,1.43429,10
5.6723,0.611201,-0.0995834,22
6.18104,0.664927,1.66576,4
2.87385,0.305604,-0.774387,10
5.66728,0.601657,0.0994787,36
3.32735,0.352655,-0.772482,7
5.67052,0.599999,0.298838,24
3.90862,0.413572,-0.763999,6
5.65878,0.597759,0.497834,43
4.75012,0.500935,-0.756517,5
5.65998,0.595887,0.698799,31
5.6739,0.596352,-0.700505,43
5.66785,0.594716,0.902627,21
5.67505,0.595471,-0.499228,22
5.65855,0.592742,1.10593,37
5.67522,0.593487,-0.299048,41
6.19451,0.646698,1.43789,9
5.68235,0.592228,-0.099723,22
6.19677,0.644748,1.66938,4
2.87874,0.295965,-0.775422,10
5.67731,0.582689,0.0996183,37
3.31693,0.339847,-0.769782,7
5.67059,0.579997,0.298734,22
3.91199,0.400124,-0.764381,6
5.67074,0.579015,0.498705,42
4.76363,0.485552,-0.758394,8
5.67387,0.577331,0.700261,36
5.67595,0.576544,-0.700505,40
5.68168,0.576122,0.904504,21
5.68899,0.576863,-0.500274,20
5.6684,0.573776,1.10746,37
5.6713,0.573072,-0.298734,39
6.19673,0.62507,1.43789,9
5.68836,0.572788,-0.0997929,20
6.2009,0.623308,1.6699,4
2.88937,0.286869,-0.77801,10
5.69324,0.564247,0.0998627,34
3.31034,0.327499,-0.767983,7
5.66454,0.560404,0.298315,21
3.91727,0.386853,-0.765144,8
5.68264,0.560193,0.499577,39
4.77906,0.470276,-0.760584,4
5.67981,0.557911,0.700749,37
5.67783,0.557717,-0.700505,33
5.68356,0.557279,0.904504,21
5.70088,0.557972,-0.501146,22
5.67427,0.554369,1.10822,39
5.67724,0.553658,-0.298943,40
6.19295,0.603951,1.43654,9
5.69819,0.554698,-0.0999325,22
6.22409,0.604795,1.67559,4
2.89415,0.277656,-0.779045,11
5.69707,0.545554,0.0998976,37
3.33081,0.318374,-0.772482,7
5.67431,0.542378,0.298734,21
3.91462,0.373489,-0.764381,8
5.70232,0.543044,0.501146,38
4.78256,0.454611,-0.760897,5
5.68953,0.539825,0.701724,37
5.6836,0.539262,-0.700993,41
5.68538,0.538427,0.904504,22
5.70468,0.53925,-0.50132,20
5.69954,0.537763,1.1128,39
5.70489,0.537261,-0.300304,41
6.20074,0.583958,1.43789,8
5.69602,0.535423,-0.0998627,22
6.22991,0.584514,1.67663,4
2.88544,0.267166,-0.776457,11
5.7088,0.52758,0.100072,32
3.33378,0.307507,-0.772932,9
5.69606,0.524397,0.29978,22
3.89635,0.358025,-0.760565,9
5.70211,0.52395,0.500971,41
4.7624,0.436767,-0.757456,4
5.70315,0.522039,0.703186,41
5.70917,0.521585,-0.703917,40
5.69902,0.519658,0.906381,22
5.7105,0.519696,-0.501668,22
5.70724,0.518396,1.11394,39
5.71071,0.517706,-0.300513,36
6.21438,0.563367,1.44059,8
5.70582,0.516259,-0.100002,22
6.23576,0.56311,1.67767,4
2.88447,0.256418,-0.77594,10
5.70472,0.506123,0.0999674,31
3.33683,0.295455,-0.773382,7
5.71187,0.504749,0.300513,25
3.91915,0.345639,-0.764763,8
5.70994,0.503574,0.501494,42
4.75413,0.41844,-0.755891,5
5.71096,0.501654,0.703917,42
5.715,0.501004,-0.704405,38
5.7127,0.499795,0.908259,21
5.71038,0.498591,-0.501494,24
5.70324,0.496964,1.1128,39
5.71854,0.49729,-0.300827,40
6.22417,0.54126,1.44239,9
5.71365,0.495862,-0.100107,20
6.24163,0.540586,1.6787,4
2.89117,0.246335,-0.777492,11
5.72248,0.486568,0.100247,31
3.32041,0.281741,-0.769333,9
5.72355,0.48565,0.301036,24
3.91642,0.331625,-0.763999,6
5.72366,0.48365,0.50254,38
4.76154,0.401511,-0.75683,6
5.71474,0.480884,0.704161,39
5.72471,0.48072,-0.70538,40
5.73015,0.481177,0.910762,21
5.72598,0.479818,-0.502714,22
5.70494,0.477052,1.1128,39
5.72024,0.477329,-0.300827,37
6.23388,0.519091,1.44419,9
5.73129,0.477241,-0.100386,18
6.25888,0.520073,1.68284,4
2.88816,0.235928,-0.776457,11
5.72605,0.46775,0.100282,32
3.32521,0.271046,-0.770232,6
5.72123,0.465343,0.300827,22
3.93125,0.319064,-0.766671,8
5.73723,0.464631,0.503586,38
4.77072,0.386358,-0.758081,6
5.72421,0.462569,0.705136,38
5.72231,0.461413,-0.704892,40
5.72983,0.461013,0.910449,21
5.74748,0.461421,-0.504457,22
5.72215,0.459386,1.11585,37
5.73374,0.459313,-0.301455,39
6.23557,0.498418,1.44419,10
5.74687,0.458343,-0.100631,20
6.27606,0.49945,1.68698,4
2.887,0.226199,-0.77594,10
5.74559,0.44916,0.100596,30
3.33003,0.259741,-0.771132,6
5.73469,0.447304,0.301455,22
3.92446,0.305417,-0.765144,10
5.74669,0.446219,0.504283,36
4.77598,0.370009,-0.758707,6
5.73371,0.443201,0.706111,39
5.73181,0.442045,-0.705867,41
5.73527,0.442311,0.911074,19
5.75097,0.442513,-0.504632,22
5.74525,0.441067,1.12005,39
5.74327,0.439904,-0.301874,39
6.25087,0.477686,1.44734,10
5.74437,0.43898,-0.100561,20
6.28539,0.479224,1.68905,4
2.8974,0.21684,-0.778528,11
5.75503,0.430703,0.100735,37
3.33087,0.248697,-0.771132,6
5.75215,0.428469,0.302293,21
3.9118,0.290697,-0.762473,5
5.74026,0.425568,0.503586,38
4.76733,0.353438,-0.757143,8
5.749,0.425208,0.707817,42
5.74908,0.424205,-0.707817,40
5.74269,0.422725,0.912013,21
5.75446,0.422582,-0.504806,22
5.74864,0.422154,1.12043,37
5.76064,0.422025,-0.302711,42
6.26603,0.45795,1.45048,10
5.74986,0.419218,-0.100631,20
6.29088,0.457559,1.69009,4
2.8904,0.206679,-0.776457,11
5.75849,0.410755,0.10077,32
3.33172,0.237068,-0.771132,6
5.76556,0.409234,0.302921,22
3.90686,0.277305,-0.761328,7
5.74959,0.407095,0.504283,33
4.74686,0.335265,-0.753701,6
5.76036,0.405834,0.709036,41
5.76637,0.405248,-0.709767,38
5.75398,0.403369,0.913577,21
5.76187,0.402909,-0.505329,22
5.75399,0.402358,1.12119,36
5.76805,0.402332,-0.303025,36
6.28703,0.437429,1.45498,11
5.76725,0.40025,-0.10091,22
6.29822,0.435999,1.69164,4
2.89114,0.196084,-0.776457,11
5.76587,0.391056,0.100875,37
3.31697,0.224384,-0.767533,6
5.76696,0.389107,0.302921,24
3.92352,0.26404,-0.764381,8
5.76297,0.386818,0.505329,38
4.75594,0.318391,-0.754953,6
5.75778,0.38546,0.708548,37
5.77171,0.385381,-0.710255,38
5.76915,0.384198,0.915767,21
5.77318,0.383455,-0.506201,20
5.75739,0.381397,1.12158,40
5.77347,0.38145,-0.303235,35
6.30026,0.41515,1.45768,10
5.77659,0.380644,-0.101049,22
6.30741,0.414516,1.69371,4
2.90144,0.186612,-0.779045,11
5.77525,0.370434,0.101015,31
3.33333,0.213221,-0.771132,6
5.77233,0.368221,0.30313,22
3.91658,0.249841,-0.762854,7
5.78417,0.367965,0.507072,38
4.77476,0.302914,-0.757769,8
5.76707,0.364854,0.709523,41
5.76912,0.363975,-0.709767,38
5.77643,0.363424,0.916706,21
5.79039,0.364302,-0.507595,22
5.7822,0.362771,1.12615,40
5.77278,0.361171,-0.30313,39
6.3075,0.393521,1.45903,9
5.79391,0.360461,-0.101329,20
6.3166,0.391876,1.69578,4
2.90208,0.176482,-0.779045,11
5.78849,0.350997,0.101224,31
3.33405,0.201585,-0.771132,6
5.78155,0.348551,0.303549,22
3.93311,0.237114,-0.765907,8
5.79735,0.348488,0.508118,36
4.7679,0.285774,-0.756517,8
5.78416,0.345669,0.711473,41
5.77828,0.344305,-0.710742,37
5.77767,0.343257,0.916706,21
5.79759,0.344441,-0.508118,22
5.80302,0.343747,1.12997,39
5.79394,0.342194,-0.304177,37
6.32634,0.372531,1.46308,9
5.79114,0.340001,-0.101259,20
6.35072,0.371742,1.70458,5
2.89303,0.165798,-0.776457,10
5.81363,0.332159,0.101643,36
3.33084,0.189723,-0.770232,6
5.7947,0.329048,0.304177,24
3.91823,0.222494,-0.762854,7
5.79654,0.328138,0.507944,45
4.77479,0.269461,-0.757456,8
5.80317,0.326481,0.713667,47
5.7953,0.325024,-0.712692,36
5.79264,0.32386,0.918896,37
5.79677,0.324091,-0.507944,24
5.78851,0.322613,1.12692,57
5.81105,0.322855,-0.305014,38
6.35874,0.352171,1.47028,10
5.79829,0.320113,-0.101364,34
6.34619,0.349251,1.70303,6
2.89166,0.155596,-0.77594,10
5.81076,0.311648,0.101573,58
3.33149,0.178094,-0.770232,6
5.81576,0.309883,0.305223,42
3.93467,0.209652,-0.765907,8
5.8076,0.308429,0.508815,63
4.75992,0.251956,-0.754953,8
5.8023,0.306119,0.713423,51
5.81226,0.305625,-0.714642,64
5.80162,0.30405,0.920148,37
5.80781,0.304375,-0.508815,36
5.80136,0.303024,1.12921,51
5.81813,0.302879,-0.305328,59
6.3755,0.330779,1.47388,10
5.81934,0.300908,-0.101713,34
6.35702,0.327595,1.70562,6
2.89991,0.145888,-0.77801,11
5.81181,0.291364,0.101573,39
3.3282,0.16627,-0.769333,7
5.8188,0.289678,0.305328,28
3.9393,0.196111,-0.766671,10
5.80665,0.288057,0.508641,37
4.76669,0.235633,-0.755891,8
5.81721,0.286546,0.715129,41
5.83312,0.286306,-0.717079,45
5.8204,0.284667,0.922963,22
5.83073,0.285172,-0.510733,27
5.80827,0.283057,1.13035,37
5.82513,0.282857,-0.305642,40
6.38051,0.308712,1.47478,10
5.82634,0.28088,-0.101817,22
6.36584,0.305772,1.70769,5
2.9004,0.135766,-0.77801,11
5.83277,0.272008,0.101922,36
3.32876,0.154651,-0.769333,6
5.81977,0.269363,0.305328,28
3.91643,0.181268,-0.762091,7
5.8335,0.268981,0.510907,36
4.76551,0.218901,-0.755579,8
5.82016,0.266327,0.715373,36
5.80235,0.264501,-0.713179,40
5.82728,0.264615,0.923902,21
5.83766,0.265086,-0.511256,24
5.81706,0.263134,1.13188,31
5.82209,0.262346,-0.305433,39
6.35818,0.285387,1.46938,9
5.83129,0.260718,-0.101887,22
6.36301,0.283382,1.70665,5
2.89892,0.125556,-0.777492,10
5.84368,0.252075,0.102097,40
3.33706,0.143367,-0.771132,6
5.82866,0.249389,0.305747,27
3.91704,0.167597,-0.762091,5
5.84833,0.249209,0.512127,39
4.77019,0.202435,-0.756204,9
5.83692,0.246681,0.717323,32
5.81911,0.244911,-0.715129,37
5.83014,0.244354,0.924215,19
5.84652,0.24504,-0.511953,22
5.83168,0.243401,1.13455,31
5.84093,0.242766,-0.306375,35
6.36109,0.26327,1.46983,12
5.82417,0.240033,-0.101748,22
6.37168,0.261484,1.70872,8
2.89934,0.115435,-0.777492,10
5.84852,0.231835,0.102166,32
3.34533,0.132024,-0.772932,6
5.83748,0.229354,0.306165,31
3.92152,0.154076,-0.762854,5
5.84319,0.22856,0.511604,38
4.77087,0.185782,-0.756204,9
