# .PCD v0.7 - Point Cloud Data file format
VERSION 0.7
FIELDS x y z
SIZE 4 4 4
TYPE F F F
COUNT 1 1 1
WIDTH 381
HEIGHT 1
VIEWPOINT 0 0 0 1 0 0 0
POINTS 381
DATA ascii
4.4303098 2.43156 1.35414
4.4387698 2.41608 1.35414
4.4401999 2.3768301 1.34948
4.4467602 2.36041 1.34896
4.7371101 2.4765 1.23408
4.7318802 2.45278 1.23048
4.46872 2.3143799 1.3484499
4.7546701 2.3996699 1.22958
4.48315 2.26068 1.34534
4.4858298 2.24242 1.3437901
4.75385 2.35776 1.22508
4.7620502 2.34115 1.22508
4.4770999 2.19912 1.33654
5.0597401 2.4253099 1.09066
5.0805202 2.3907101 1.0914299
4.7718101 2.2444301 1.21744
4.5091801 2.1189799 1.33499
5.0746002 2.3663299 1.08837
4.7800002 2.2269199 1.21744
4.5064101 2.0975399 1.33188
4.7806702 2.2069499 1.2156399
4.5191898 2.0652299 1.33137
4.7853098 2.1687 1.21294
5.4499602 2.45046 0.94642901
4.5193901 2.0272999 1.32722
4.8003302 2.1352401 1.21294
4.80441 2.0969999 1.21024
5.11167 2.2120199 1.0826499
4.8009701 2.0755701 1.20754
5.1171699 2.1942799 1.08227
4.8078198 2.0596399 1.20754
5.8693299 2.4962201 0.78313202
5.4724002 2.32515 0.94173598
5.8505702 2.46416 0.77947599
5.4895902 2.30987 0.94330001
5.1142702 2.1508901 1.07845
5.8554702 2.4421999 0.77898902
5.4885001 2.28689 0.94173598
5.1199298 2.1322701 1.07807
4.8183298 2.0046899 1.2048399
5.4818401 2.2616899 0.93923301
5.1291599 2.1151299 1.07845
5.4769001 2.2373099 0.93704301
5.8678398 2.37553 0.77728301
5.1255999 2.0719199 1.07464
4.83002 1.95048 1.20259
5.49789 2.20123 0.93798101
5.1291499 2.0525501 1.0738699
5.13446 2.03392 1.07349
4.5668602 1.80538 1.31584
6.32162 2.4837799 0.59422803
4.84407 1.87792 1.19944
5.5019102 2.1152899 0.93360102
5.5055599 2.0946701 0.93297499
5.13449 1.9524601 1.06777
4.5714502 1.73471 1.31014
6.3343401 2.38976 0.59231001
5.8847299 2.2177899 0.77216399
5.5109901 2.0747399 0.93266201
4.8449101 1.82108 1.19494
4.5811 1.7201 1.31118
6.3337202 2.36304 0.59143901
5.8850002 2.1944599 0.77118897
5.5089502 2.0520401 0.93109798
6.3288498 2.3360901 0.59021902
5.5071602 2.02842 0.92953402
5.1586699 1.89905 1.06853
4.5805898 1.68261 1.30755
4.8603601 1.76807 1.1940399
4.5828099 1.66529 1.30652
5.5174699 1.98859 0.92890799
5.1570301 1.8576601 1.06548
4.5904102 1.64994 1.30704
6.3417101 2.2656701 0.58917302
5.8930001 2.10304 0.768264
6.3495798 2.24352 0.58917302
4.86941 1.71384 1.19179
4.6072898 1.6197701 1.3085901
5.9000401 2.0592301 0.76728898
6.3368402 2.1893699 0.58655798
5.8996801 2.0360301 0.76631403
5.53163 1.90685 0.926718
6.3501 2.1691799 0.58708102
5.53264 1.88562 0.92577899
5.1626401 1.75851 1.06013
4.8870902 1.66275 1.19179
6.3481898 2.14381 0.58621001
5.5373201 1.86566 0.925466
5.1687498 1.7404799 1.06013
6.35186 2.1203699 0.58586103
5.5269299 1.84071 0.92265099
4.8782401 1.62183 1.1868401
4.6201901 1.53424 1.30445
5.5198698 1.81804 0.920461
5.1845002 1.70558 1.0609
4.8875799 1.60601 1.18774
4.6050601 1.51228 1.29875
6.34377 2.0685599 0.58376902
5.5318198 1.8006001 0.921399
5.1901302 1.68838 1.0609
4.8965802 1.591 1.18864
5.9085698 1.90273 0.76217097
5.5418301 1.78249 0.92202502
4.9021101 1.5739 1.18864
4.6099801 1.47833 1.2972
5.54425 1.76193 0.921399
5.1905699 1.64854 1.05861
4.8889999 1.55088 1.18414
5.92171 1.86143 0.76217097
5.5352898 1.7378401 0.91889602
5.20191 1.63217 1.05975
4.6165099 1.44496 1.29617
6.3545699 1.97558 0.58219999
5.92628 1.84016 0.76192701
5.53755 1.71734 0.91826999
5.2056999 1.61342 1.05937
4.8997002 1.51671 1.18414
5.92697 1.8177201 0.76119602
5.5454001 1.69857 0.91858298
5.20191 1.59237 1.05746
5.5437298 1.6769201 0.91733199
5.1942801 1.57023 1.05479
4.9101701 1.48247 1.18414
4.6184402 1.39263 1.29254
4.6214199 1.37595 1.29202
5.5458298 1.63538 0.91576701
5.21454 1.5367 1.0567
4.8942299 1.44045 1.17784
5.2104402 1.5157501 1.05479
5.9348998 1.70741 0.75827098
4.9079099 1.40732 1.17874
5.56075 1.5766799 0.91545498
4.6234498 1.30656 1.28737
5.9237399 1.65951 0.755346
5.5662198 1.55726 0.91545498
4.9063601 1.36988 1.1760401
4.6298399 1.29093 1.2878799
5.93715 1.64094 0.75632101
4.9073501 1.35171 1.17514
4.6254702 1.25585 1.28426
5.2218399 1.40212 1.05098
4.6354198 1.24119 1.28581
5.9345398 1.57463 0.75388402
5.5756998 1.47733 0.91357702
4.92101 1.30111 1.17514
5.9284801 1.55089 0.75242102
5.5770001 1.4568599 0.91295201
5.2296 1.3651299 1.05059
4.6402402 1.20783 1.28478
5.5724902 1.43492 0.91138703
4.91887 1.2629499 1.1724401
4.64817 1.19258 1.28581
5.9432802 1.5094 0.752909
5.56215 1.41158 0.90888399
5.2354298 1.32671 1.04983
4.6391902 1.17304 1.28219
5.2340798 1.30791 1.04869
5.9379902 1.4651099 0.75095898
5.2329001 1.2882299 1.0475399
4.9354 1.21316 1.17334
5.2354598 1.26949 1.04716
5.9403501 1.42177 0.74998403
5.5755501 1.3324 0.90794599
5.2417598 1.25167 1.0475399
4.9285798 1.17506 1.16975
4.6551199 1.10815 1.28219
5.9491501 1.40193 0.750471
5.5801702 1.31293 0.90794599
5.2499199 1.23426 1.0483
4.6552 1.09101 1.28115
5.954 1.38116 0.750471
5.5767899 1.29263 0.90669399
5.2408099 1.2128299 1.04563
5.2390599 1.1941299 1.04449
4.9404202 1.1242501 1.16975
5.2412801 1.17541 1.0441099
5.9524002 1.31635 0.74852198
5.2551198 1.14004 1.0452501
4.9443102 1.0707999 1.16795
4.6582398 1.0071501 1.27701
5.5907798 1.19346 0.90544301
5.24754 1.11923 1.04296
4.9499202 1.05395 1.1684
4.9516602 1.03626 1.16795
5.24754 1.08099 1.04144
5.9511299 1.20753 0.745597
5.5952201 1.13328 0.90419102
4.94731 0.99935198 1.1652499
4.6775298 0.94315499 1.2785701
5.25881 1.04509 1.0422
4.9507699 0.98207498 1.1652499
4.67132 0.92494899 1.27598
5.9671998 1.16747 0.74657202
5.5950499 1.09365 0.90293998
5.2547202 1.02522 1.04067
4.9579902 0.96553302 1.16615
5.6027198 1.07486 0.903566
4.9611702 0.94908798 1.16615
4.6737199 0.89240402 1.27494
5.9633098 1.12462 0.74510902
5.59867 1.05383 0.90231401
4.95679 0.93032497 1.16435
4.6844001 0.87750798 1.27701
5.5964899 1.03321 0.901375
4.9542599 0.91195703 1.163
5.9827299 1.08509 0.74657202
5.5940499 1.01359 0.900437
5.2664199 0.95232397 1.04029
4.96316 0.895697 1.16435
4.6712499 0.84217399 1.27184
5.2598801 0.93313801 1.03838
5.9704199 1.04093 0.74413401
5.6068301 0.97552299 0.901375
5.2592402 0.91410398 1.0376199
5.97402 1.02009 0.74413401
5.6062999 0.95528299 0.90074998
4.9607401 0.84171999 1.1616499
5.6019702 0.93343103 0.89949799
4.9598098 0.82375902 1.16075
4.6922202 0.77763301 1.27443
5.2803001 0.85995197 1.03991
4.6872802 0.76001501 1.27235
5.98454 0.95642799 0.74413401
5.6142101 0.89523 0.900437
5.2697001 0.83935499 1.03724
4.9654398 0.78911299 1.16075
5.9839201 0.93491697 0.74364698
5.6173 0.87563097 0.900437
4.6867399 0.72638398 1.2708
5.9871502 0.91402203 0.74364698
4.70262 0.71204501 1.27443
5.6096001 0.83435899 0.898247
4.9695702 0.73650199 1.15985
4.7108102 0.69647199 1.27598
5.9933801 0.87220502 0.74364698
5.6066098 0.81392002 0.89730799
5.28479 0.76625901 1.038
5.6094198 0.79434299 0.89730799
4.9745898 0.70178998 1.15985
5.9836001 0.82816499 0.74169701
5.6219401 0.77610898 0.89887297
4.9828 0.68521798 1.1612
5.6246099 0.75647902 0.89887297
5.6135101 0.73504901 0.89668298
4.7049999 0.61190897 1.27132
4.9761701 0.63128603 1.1580499
5.2741199 0.65412199 1.03304
4.9819999 0.61612898 1.15895
5.9909701 0.72498602 0.74096602
4.69945 0.56287199 1.2682101
5.6249599 0.65878999 0.89699501
5.2785602 0.61728901 1.03304
5.9939198 0.68292099 0.740722
5.6174102 0.63803798 0.89543098
4.9765601 0.56260997 1.15625
4.7147799 0.53134602 1.27132
6.0061302 0.66308498 0.74194098
5.6195998 0.618424 0.89543098
4.70508 0.51363099 1.2682101
5.62958 0.59964198 0.89668298
5.28473 0.56197703 1.03304
6.0028701 0.59916598 0.740722
5.2865701 0.52487499 1.03266
5.9970198 0.57744902 0.73974699
5.2981501 0.50735301 1.03457
6.0088801 0.55743003 0.74096602
5.6275702 0.520073 0.895118
4.9872499 0.45826399 1.15625
6.0107899 0.53645003 0.74096602
5.2898202 0.46931401 1.03228
4.9980998 0.42409399 1.1580499
4.7104502 0.39803401 1.26666
5.6366501 0.46144 0.89574403
5.2929702 0.432372 1.03228
6.0101399 0.47300699 0.74023402
5.6323199 0.44129699 0.89480501
5.2964101 0.41404501 1.03266
4.9892802 0.38828599 1.15535
4.9886599 0.370722 1.1549
4.71244 0.34854099 1.26614
6.0132999 0.43103999 0.74023402
5.2867398 0.35763299 1.02999
4.9988999 0.336409 1.1567
5.6379299 0.36261401 0.89480501
4.7158298 0.29917499 1.26614
6.0056601 0.366272 0.73877198
5.6332402 0.34257001 0.89386702
4.9875698 0.29981101 1.15355
6.0127802 0.34669599 0.73950303
4.7158699 0.26613599 1.26563
6.0159402 0.325811 0.73974699
5.6394401 0.303449 0.89449197
5.2892599 0.283678 1.02961
4.9953299 0.266168 1.1549
6.0011802 0.30400699 0.73779702
5.6424398 0.28386 0.89480501
5.2941399 0.26541099 1.03037
4.7214799 0.23339801 1.26666
6.0061698 0.28324601 0.73828501
5.6473498 0.264348 0.89543098
6.0110898 0.26245001 0.73877198
5.6324401 0.243948 0.892928
5.6391401 0.22550701 0.89386702
5.3025098 0.21019199 1.03151
5.0005102 0.19647001 1.15535
6.0127401 0.221531 0.73877198
5.64712 0.16661599 0.89480501
6.0068202 0.157295 0.73779702
5.3108201 0.136287 1.03266
4.9969201 0.126486 1.154
5.3112602 0.117749 1.03266
4.99928 0.109084 1.1544501
6.0157099 0.115508 0.73877198
5.0015802 0.091669701 1.1549
4.7168002 0.0856269 1.26407
5.6528502 0.087816998 0.89543098
5.3021202 0.081440397 1.03075
4.7209401 0.069216996 1.26511
6.0163498 0.074560598 0.73877198
5.6491699 0.0680352 0.89480501
4.9923401 0.057510599 1.15265
4.7288799 0.052824799 1.26718
5.6375198 0.0482154 0.892928
4.9964099 0.040116102 1.15355
4.7251701 0.036286701 1.26614
5.63765 0.028534999 0.892928
5.0082102 0.0227268 1.15625
5.3007798 0.0074024498 1.03037
5.64957 -0.0108464 0.89480501
5.2968502 -0.0110937 1.02961
6.0167398 -0.030453701 0.73877198
5.65345 -0.029601701 0.89543098
5.3046298 -0.029627001 1.03113
5.0042801 -0.029696301 1.15535
4.73101 -0.0297262 1.2677
4.9924502 -0.047054101 1.15265
6.0302701 -0.072624698 0.74047798
5.6412401 -0.069908902 0.89355397
5.2958498 -0.103535 1.02961
5.2993598 -0.123035 1.03037
4.73557 -0.112427 1.26925
6.0167398 -0.157554 0.739016
5.64364 -0.149755 0.89417899
4.7293301 -0.12962399 1.2677
6.0339799 -0.18013801 0.74120897
5.6430502 -0.170439 0.89417899
4.7230301 -0.146777 1.26614
5.3016701 -0.17958 1.03113
4.7147698 -0.162995 1.26407
6.0246401 -0.221966 0.74023402
5.6515999 -0.210198 0.89574403
5.0027599 -0.18868899 1.1558
4.7238202 -0.17982 1.26666
6.0198598 -0.242835 0.73974699
5.3042102 -0.216748 1.0319
6.0250201 -0.26200399 0.74047798
5.3152699 -0.23392899 1.03418
6.0300102 -0.28331301 0.74120897
5.6452298 -0.26721001 0.895118
4.9966998 -0.239134 1.1549
4.7217598 -0.22762799 1.26666
5.64821 -0.28711399 0.89574403
5.2997899 -0.27033001 1.03151
5.0036201 -0.256975 1.1567
6.3724098 -0.342886 0.55831999
6.0120301 -0.32454801 0.73926002
5.28896 -0.289217 1.02961
5.0026398 -0.27531201 1.1567
5.2957602 -0.30813399 1.03113
4.9899802 -0.29209 1.154
5.6448898 -0.34624499 0.89574403
4.9948201 -0.30899599 1.15535
5.6318202 -0.365181 0.89386702
5.3111701 -0.34531999 1.03457
5.0061498 -0.344796 1.1585
5.2733798 -0.37985101 1.0276999
5.0029702 -0.36212799 1.1580499
4.7308998 -0.36070099 1.27132
4.9770098 -0.39519501 1.15265
4.7315302 -0.37736601 1.27184
4.7109399 -0.392277 1.26666
