# .PCD v0.7 - Point Cloud Data file format
VERSION 0.7
FIELDS x y z
SIZE 4 4 4
TYPE F F F
COUNT 1 1 1
WIDTH 647
HEIGHT 1
VIEWPOINT 0 0 0 1 0 0 0
POINTS 647
DATA ascii
5.55337 2.45976 -1.62745
5.63486 2.4935 -1.42259
5.54954 2.4349201 -1.62383
5.5451102 2.38696 -1.61762
5.6638198 2.4368801 -1.42349
5.7248998 2.4607999 -1.21126
5.7348299 2.44257 -1.21164
5.8092699 2.47188 -0.99992901
5.5576701 2.3476501 -1.61658
5.8105798 2.4485099 -0.99867803
5.8930802 2.48085 -0.78508198
5.5622702 2.32675 -1.61555
5.8573799 2.44419 -1.00525
5.8980398 2.45874 -0.78459501
5.5596499 2.30288 -1.61244
5.9120898 2.4404099 -0.785326
5.9759598 2.44118 -0.56476903
6.07093 2.4775 -0.343638
6.0795498 2.4563 -0.343638
6.1619902 2.4871099 -0.115989
6.0750999 2.4298699 -0.34290501
5.5750999 2.21861 -1.60778
6.18292 2.4454999 -0.116058
5.5795999 2.1967399 -1.60675
6.34549 2.4957199 0.35734999
6.0756001 2.3797801 -0.34196299
6.2502599 2.4105201 0.116931
5.5873098 2.11238 -1.60054
6.2553 2.3636799 0.116722
6.1812 2.32213 -0.115256
6.18365 2.29845 -0.115151
5.5750999 2.06229 -1.59277
6.2664199 2.3167801 0.116617
6.3513999 2.34568 0.35483801
6.1695099 2.2674899 -0.114732
6.35392 2.32143 0.35452399
6.0864902 2.2153001 -0.33945099
5.5802798 2.02003 -1.59018
6.2561202 2.2634499 0.116128
6.3638701 2.2999201 0.354628
6.07728 2.1879599 -0.33850899
5.5872998 2.00054 -1.59018
6.2639799 2.2416 0.116128
6.3511701 2.2702999 0.353477
6.08111 2.16539 -0.33829999
6.1947999 2.2034299 -0.114767
5.5906 1.97974 -1.58915
6.0886402 2.14415 -0.33829999
6.1817002 2.17449 -0.114383
6.2738199 2.1958301 0.116024
6.3611999 2.2239299 0.353163
6.17414 2.14765 -0.114104
6.0921302 2.0976901 -0.337672
5.5854402 1.91232 -1.5819
6.3746901 2.1788099 0.35305801
6.18331 2.10256 -0.113999
6.2680502 2.1204 0.1155
5.5941601 1.85009 -1.5788
6.2694101 2.0722001 0.115256
6.3664398 2.10303 0.35138401
6.0904598 2.00244 -0.33599699
6.37184 2.0801799 0.35127899
5.5919099 1.80722 -1.5746599
6.36766 2.05424 0.350651
6.0906401 1.95666 -0.335264
5.7368698 1.82977 -1.3902
6.3557701 2.0259399 0.34960401
6.18751 1.96161 -0.113301
6.2744999 1.97834 0.114837
5.7395101 1.80856 -1.3893
6.3589902 2.0025401 0.34939501
6.09272 1.9105099 -0.334636
6.17524 1.93402 -0.112952
5.5920901 1.74281 -1.5694799
6.2775502 1.95524 0.114767
6.2652202 1.92743 0.114418
6.1040001 1.86734 -0.33453101
6.2642598 1.90323 0.114278
5.7432098 1.74383 -1.3857
6.3719602 1.93352 0.34897599
6.1894102 1.86752 -0.112847
6.3633699 1.90668 0.34813899
6.3691802 1.90721 0.58167702
6.0786099 1.81327 -0.33243799
5.7571201 1.70425 -1.38615
6.3699899 1.88446 0.34813899
6.3719802 1.88384 0.58132899
6.27425 1.83472 0.114104
6.3670402 1.85824 0.58028299
6.26333 1.80782 0.11379
5.7033401 1.64511 -1.3704
5.7781801 1.6655999 -1.1689
6.3677402 1.83434 0.57976002
6.1030202 1.75117 -0.33275199
6.1995001 1.77651 -0.112568
5.68468 1.61825 -1.36455
6.3759198 1.81383 0.347406
6.37219 1.81156 0.57958603
5.8601499 1.6648901 -0.96488798
6.0975699 1.72659 -0.33212399
6.2095199 1.75595 -0.112638
5.6125302 1.57867 -1.56223
6.2719402 1.76296 0.11372
5.68467 1.59682 -1.3631999
6.3726001 1.78886 0.346883
5.7726498 1.62045 -1.16546
6.3861499 1.79146 0.58028299
5.8488102 1.6396199 -0.96207201
6.09971 1.7042201 -0.33191499
6.2079 1.73211 -0.112498
5.6105599 1.557 -1.56016
6.36695 1.76452 0.346255
5.8678198 1.62288 -0.96426201
5.9355202 1.63938 -0.75607699
6.0306101 1.6645 -0.54733801
6.2020502 1.70833 -0.112289
5.6029201 1.5338399 -1.55654
5.6991601 1.5591201 -1.3641
6.3811998 1.74211 0.57871401
5.8636398 1.6008101 -0.96269798
6.11309 1.66318 -0.332019
6.2079701 1.6866699 -0.112289
5.6098399 1.5157501 -1.55706
5.70645 1.5397201 -1.36455
5.77387 1.55683 -1.16241
6.3888698 1.72146 0.578888
5.8577499 1.57725 -0.96082097
6.0167899 1.6167001 -0.54507202
6.1072898 1.63873 -0.33139101
5.6113601 1.49517 -1.55602
5.6873102 1.51328 -1.3587
6.38906 1.69761 0.57836598
5.9520898 1.5781699 -0.75607699
6.1091099 1.61638 -0.331182
5.6184201 1.47606 -1.55654
5.6887898 1.49243 -1.3578
5.7883902 1.51748 -1.16317
6.3968801 1.6758 0.57854003
5.8705301 1.5368201 -0.961133
6.0243402 1.57259 -0.54472297
6.1031199 1.59202 -0.33055401
6.3991199 1.65135 0.57819098
5.8742099 1.5148 -0.96082097
5.9379702 1.53014 -0.752909
6.0375199 1.55354 -0.545421
6.21348 1.59535 -0.111975
5.7705698 1.46875 -1.15745
6.3913298 1.6255701 0.57697099
5.87181 1.49234 -0.95956898
5.9473901 1.50934 -0.75339597
5.6984401 1.43135 -1.35645
5.77947 1.44956 -1.15821
5.9523602 1.48961 -0.75339597
6.1194601 1.52802 -0.33055401
6.20507 1.5470999 -0.111626
5.61973 1.39283 -1.55136
6.28513 1.5565799 0.113022
5.6901598 1.40817 -1.35331
6.3846502 1.57886 0.34468499
5.7766199 1.4285001 -1.15668
6.0261102 1.48462 -0.54298002
6.10148 1.50093 -0.32929799
6.2065501 1.52447 -0.111556
6.3707199 1.5518399 0.343638
5.7834802 1.40879 -1.15707
6.1105599 1.4805599 -0.32950699
5.62744 1.35311 -1.55084
5.69416 1.3670501 -1.3519599
5.9483199 1.42258 -0.75095898
6.1936898 1.4755501 -0.111137
5.6246099 1.33167 -1.54877
6.29914 1.49022 0.112987
5.7007999 1.34761 -1.35241
6.39325 1.50894 0.574705
5.8736401 1.3852201 -0.95581502
5.9493899 1.4009 -0.750471
6.2027001 1.4548301 -0.111207
5.70926 1.32859 -1.35331
6.3805299 1.4848 0.34332401
6.3907099 1.48482 0.57400799
5.8688202 1.36248 -0.95424998
6.3856702 1.46251 0.34332401
5.7853599 1.3239599 -1.15363
6.0277901 1.37391 -0.54088902
6.1070299 1.3908499 -0.328251
6.2046599 1.4108 -0.111067
5.6972599 1.2849801 -1.3483599
5.7897201 1.30477 -1.15363
5.94801 1.33608 -0.74852198
6.0420299 1.3560899 -0.54176003
6.2095499 1.38914 -0.111067
5.6348901 1.2523201 -1.5467
5.7093201 1.26677 -1.35016
6.3762298 1.4135799 0.34227699
5.7808199 1.28158 -1.15096
5.8709698 1.29941 -0.95237303
5.94488 1.3135999 -0.74754697
6.03895 1.33328 -0.54106301
5.6222401 1.22893 -1.54204
6.3004999 1.37604 0.112568
6.3791699 1.39089 0.34217301
6.4047399 1.39529 0.57348502
5.8812599 1.28017 -0.95331198
5.94943 1.29284 -0.74754697
6.1251602 1.32767 -0.32846099
6.18782 1.33899 -0.110509
6.29354 1.3515199 0.112359
5.78579 1.24036 -1.1502
6.3998299 1.37084 0.572613
5.6439099 1.19244 -1.54567
5.70893 1.2041 -1.34701
5.8726501 1.23542 -0.95049602
6.0369802 1.26669 -0.53966802
6.2087598 1.29821 -0.110718
6.3836098 1.32198 0.341649
6.4209499 1.32855 0.573659
5.8846698 1.2165101 -0.951747
6.0433202 1.2460099 -0.53984302
6.11134 1.25781 -0.32699499
6.2132602 1.27653 -0.110718
5.63696 1.14993 -1.54153
5.7133799 1.16344 -1.34611
6.4236002 1.30573 0.57348502
5.8888798 1.1959701 -0.951747
6.11374 1.2360801 -0.32688999
6.19807 1.25088 -0.110369
6.3828902 1.27543 0.34112599
5.6334801 1.10831 -1.53842
6.29458 1.2372299 0.111975
6.3949199 1.25579 0.34154499
5.7988501 1.1376899 -1.14867
6.0384302 1.17922 -0.53827399
6.2142901 1.2101901 -0.110509
6.29669 1.21597 0.11194
5.7154899 1.1027 -1.34386
5.7912202 1.1152101 -1.1463799
6.4173498 1.23463 0.571742
5.8756599 1.13041 -0.94768
5.96734 1.14589 -0.74608397
6.04251 1.1581399 -0.53827399
6.1104498 1.17005 -0.32605299
6.2106199 1.18699 -0.110369
6.3009 1.19398 0.11194
5.8025999 1.09746 -1.14791
5.9537501 1.12174 -0.743891
5.8873 1.09008 -0.94830602
6.2030301 1.14071 -0.11009
5.63872 1.0288 -1.53583
6.3090801 1.1499701 0.11194
5.7267199 1.0427901 -1.34386
6.3880501 1.16321 0.34028801
5.7927299 1.0537601 -1.14447
6.4120798 1.16528 0.57017303
5.8930101 1.06988 -0.94861901
5.9594798 1.0798 -0.74364698
6.1164699 1.1049401 -0.325739
6.2028399 1.1194201 -0.11002
5.6327701 1.00741 -1.53324
6.29317 1.12552 0.111591
5.8021798 1.03457 -1.14562
6.41219 1.14219 0.56982398
5.9649801 1.06038 -0.743891
6.0402498 1.0715801 -0.53670502
6.1259999 1.08569 -0.32605299
6.2067099 1.09776 -0.11002
5.6436901 0.99005902 -1.53531
6.42379 1.12229 0.570521
6.0439501 1.05049 -0.53670502
6.1140099 1.06157 -0.325216
5.6510901 0.97002202 -1.53635
6.3821602 1.09322 0.33934599
6.43572 1.10008 0.57121903
5.95854 1.0163701 -0.74218398
6.31071 1.05945 0.111695
6.3821902 1.06916 0.33913699
5.8898401 0.98456597 -0.94580299
5.9622302 0.99452502 -0.74218398
6.2042398 1.02933 -0.109776
5.7267399 0.939843 -1.33981
6.2097602 1.00799 -0.109811
5.6437702 0.90802801 -1.53169
5.8038402 0.93066502 -1.14256
5.8868198 0.94186002 -0.94423902
6.13235 0.97566003 -0.325425
6.20929 0.98567998 -0.109741
6.3056598 0.99082202 0.111416
6.3989501 1.00319 0.33945099
5.9762402 0.93264902 -0.74267203
6.1199298 0.95179099 -0.324588
6.2186298 0.96491802 -0.109845
6.3031502 0.96789598 0.111311
5.89325 0.90074199 -0.94423902
5.96768 0.90998799 -0.74120897
6.22789 0.94410199 -0.10995
5.65488 0.84916598 -1.53221
6.3144002 0.94707298 0.111451
6.39395 0.956725 0.33882299
5.80162 0.86809498 -1.14027
6.43961 0.96240598 0.56964999
6.0520501 0.90016901 -0.53531098
5.7287698 0.83778101 -1.33666
5.8084998 0.84840399 -1.14104
5.9699602 0.86773199 -0.740722
5.7316599 0.81777698 -1.33666
5.8075399 0.82757097 -1.14027
5.8828001 0.83619797 -0.94111001
6.0384598 0.85509902 -0.53356701
6.2196102 0.87632602 -0.109636
5.8181701 0.80837297 -1.1418
6.1197801 0.84266001 -0.32374999
6.23452 0.85624099 -0.109845
6.3052101 0.85586101 0.111067
5.7295098 0.77669501 -1.33486
6.4007401 0.86655402 0.33850899
5.8924098 0.79563701 -0.94173598
5.9747901 0.80464 -0.74023402
6.0561299 0.81451499 -0.53461301
6.1226802 0.82129401 -0.32374999
6.2374701 0.834472 -0.109845
5.6573501 0.74882197 -1.5290999
6.3141098 0.83463198 0.111172
6.4376502 0.84753299 0.56808102
5.9029899 0.77609801 -0.94298702
5.9736199 0.783261 -0.73974699
6.0569601 0.79311597 -0.53443903
6.22051 0.81011301 -0.109496
5.63693 0.726107 -1.52289
6.3130102 0.81207699 0.111102
5.7367201 0.73692799 -1.33531
6.3987098 0.82082802 0.33809
5.9036999 0.75523603 -0.94267398
6.1322298 0.77903301 -0.32396001
6.2193398 0.78789002 -0.109427
5.6391902 0.708395 -1.52289
6.3056102 0.79099399 0.110927
5.7409401 0.719145 -1.33576
5.8130498 0.727144 -1.13875
5.8884001 0.73448598 -0.93985802
5.9826298 0.744115 -0.74023402
6.0482502 0.75120801 -0.53321898
6.1306801 0.75927103 -0.32374999
6.22575 0.768839 -0.109496
5.6493001 0.68964702 -1.52496
6.3023801 0.76825398 0.110823
5.7298799 0.697451 -1.33261
6.4040198 0.77837199 0.33809
5.8253002 0.708031 -1.14066
6.4379802 0.78136301 0.567384
5.89289 0.71416301 -0.940171
5.9851899 0.72322899 -0.74023402
6.0587401 0.73104399 -0.533916
5.65167 0.66992098 -1.52496
5.73034 0.67721897 -1.33216
5.8179798 0.68654698 -1.13875
5.90516 0.69474399 -0.94173598
6.0652199 0.71035302 -0.53426498
6.1219501 0.71483099 -0.32301801
6.31951 0.72560501 0.111032
6.40136 0.73273897 0.337672
5.8144898 0.66556299 -1.1375999
5.97826 0.68008 -0.73877198
6.0696402 0.689403 -0.53443903
6.22154 0.70225698 -0.109287
6.3200202 0.70332098 0.110997
6.4038801 0.71039099 0.337672
5.81288 0.644831 -1.13684
5.90201 0.65262997 -0.94048399
5.9884901 0.660079 -0.73974699
5.6468501 0.609456 -1.52186
5.7409902 0.61759001 -1.33306
6.4142599 0.68888402 0.33809
5.81705 0.624744 -1.13722
6.1410198 0.65195 -0.32364601
5.6527901 0.59014302 -1.52289
6.04878 0.622949 -0.53199899
6.1293502 0.62908399 -0.32291299
6.31112 0.63549602 0.110718
5.73353 0.57632798 -1.3303601
5.8290801 0.58490199 -1.13875
6.45294 0.64636397 0.567384
6.2386999 0.616108 -0.109427
5.6567702 0.55066502 -1.52289
5.7355099 0.55630898 -1.3303601
6.40522 0.620139 0.337253
5.8154502 0.563039 -1.1357
6.45119 0.62345302 0.56703502
5.9813099 0.57488298 -0.73779702
6.3193798 0.59179401 0.110788
5.81738 0.54273701 -1.1357
6.1435499 0.56559497 -0.32333201
5.81533 0.522075 -1.13493
6.1375299 0.54343998 -0.32291299
6.31141 0.54662901 0.110578
5.7332501 0.495545 -1.32856
6.4153399 0.55337501 0.33746201
5.6600599 0.47130901 -1.52186
6.3112898 0.52442801 0.110544
5.8305702 0.48243499 -1.13722
5.9061198 0.48661301 -0.93860698
5.98876 0.49131399 -0.73779702
6.0644698 0.496463 -0.53234702
6.12923 0.49960801 -0.322285
5.8224401 0.46130201 -1.1353101
6.4571099 0.51045603 0.56668699
5.99439 0.470718 -0.73828501
5.7459002 0.43607101 -1.3303601
6.4128199 0.485562 0.337044
5.81422 0.440238 -1.13341
6.4469399 0.48701099 0.56564099
6.1405401 0.45739901 -0.32270399
6.23593 0.46231601 -0.109147
5.6492701 0.41089201 -1.51771
5.7551599 0.41657501 -1.33216
6.4184599 0.46346 0.337253
5.8235602 0.420504 -1.13493
6.4446201 0.46421599 0.565292
5.90695 0.42445299 -0.93798101
5.99753 0.428855 -0.73828501
6.1500702 0.436526 -0.32312199
6.316 0.436122 0.110509
5.7332501 0.39487499 -1.3267601
6.42203 0.44119099 0.337358
6.05896 0.40987101 -0.53130102
6.2390099 0.41876999 -0.109147
5.66363 0.37121499 -1.52082
5.7384901 0.37511501 -1.32766
5.8303399 0.379076 -1.1357
6.2524099 0.39775199 -0.109357
5.6648898 0.35144401 -1.52082
6.3189602 0.390912 0.110509
5.7495499 0.35467899 -1.32991
5.8237801 0.35824099 -1.1341701
5.9131098 0.36166099 -0.93829399
6.0696201 0.36804399 -0.53199899
6.1384201 0.370065 -0.322285
6.2337999 0.37472299 -0.109008
6.4163299 0.373335 0.33683401
5.8132401 0.337226 -1.13188
6.4465599 0.37283599 0.56494302
5.99897 0.34484899 -0.73779702
6.0549598 0.345947 -0.530604
6.1436 0.34993601 -0.322494
6.2390599 0.35318899 -0.109078
6.3154802 0.347561 0.110404
6.4215798 0.351152 0.337044
6.4457698 0.35134599 0.56476903
5.90557 0.32087001 -0.93673003
6.0060902 0.32422599 -0.73852801
6.05408 0.32576001 -0.53043002
6.14079 0.32827401 -0.322285
5.6546998 0.292395 -1.5172
6.4267602 0.32894301 0.337253
6.4589 0.32945499 0.56581497
5.9106002 0.30045301 -0.93735498
5.9972701 0.30276 -0.73730999
6.12993 0.30623999 -0.321657
5.6653399 0.27311799 -1.5197901
6.3197498 0.30355799 0.110439
5.7402601 0.27472201 -1.3267601
5.9135799 0.27991399 -0.93766803
5.9943199 0.281636 -0.73682201
6.23842 0.28765199 -0.109008
5.6662598 0.25333899 -1.5197901
6.3267598 0.28176701 0.110544
6.40695 0.283095 0.33610201
5.8271399 0.257476 -1.13379
5.9145298 0.25926799 -0.93766803
5.9853501 0.26028299 -0.73560297
6.0651202 0.26268801 -0.53112698
6.13591 0.26361099 -0.32186601
6.2453799 0.266128 -0.109112
5.65166 0.232924 -1.51564
6.3277102 0.25967899 0.110544
5.7498298 0.234956 -1.32856
6.4218202 0.26241601 0.33683401
5.8260398 0.237055 -1.13341
6.4560199 0.26155901 0.565292
6.00209 0.24002101 -0.737553
6.1487699 0.242663 -0.322494
6.2422299 0.24525701 -0.109043
5.6563001 0.213338 -1.51668
6.3185401 0.238316 0.110369
6.4489298 0.238726 0.56459498
6.0528698 0.219836 -0.52990699
6.1515398 0.222342 -0.32259899
6.4274902 0.217715 0.337044
5.8393002 0.19779199 -1.1357
6.0675402 0.19916201 -0.53112698
6.2537899 0.201998 -0.109217
5.6634498 0.174025 -1.51823
6.3320498 0.19457 0.110578
5.7363601 0.17526101 -1.32496
6.0781598 0.178275 -0.53199899
6.1409898 0.17796899 -0.321971
5.6794701 0.15467399 -1.52237
5.7525501 0.15465499 -1.32856
6.4149098 0.171342 0.33631101
5.83075 0.15573899 -1.13379
5.9969201 0.15598799 -0.73657799
5.6567998 0.134299 -1.51616
5.7628002 0.134801 -1.33081
6.4254498 0.14918201 0.33683401
5.9245801 0.135481 -0.93860698
5.9974298 0.135056 -0.73657799
6.07129 0.135656 -0.53130102
6.1500702 0.135271 -0.32238999
6.2395902 0.135061 -0.108938
6.3257599 0.126984 0.110439
6.4378901 0.12811001 0.33746201
5.8316898 0.115029 -1.13379
6.4521198 0.126141 0.56459498
6.07372 0.114501 -0.53147602
6.1564999 0.113912 -0.32270399
6.244 0.114441 -0.109008
5.7518902 0.095380202 -1.32811
5.83991 0.0948008 -1.1353101
6.4604902 0.103747 0.565292
5.9135199 0.094963402 -0.93673003
6.1468501 0.093342401 -0.32218
6.2583599 0.0928507 -0.109252
6.3224802 0.083869398 0.110369
5.7502398 0.075274698 -1.32766
6.4166598 0.0828816 0.33631101
6.4607902 0.082320899 0.565292
6.0044599 0.073362201 -0.73730999
6.1431499 0.071839899 -0.321971
5.6716399 0.056426398 -1.5197901
6.33673 0.061937399 0.110613
5.7504702 0.055203401 -1.32766
6.4690099 0.059840001 0.56598902
5.9219398 0.0537486 -0.93798101
6.0026898 0.0523833 -0.73706597
6.1493502 0.0504434 -0.322285
6.24086 0.049018499 -0.108938
5.7603698 0.035188101 -1.32991
6.4330602 0.038174599 0.33714801
5.9339399 0.033141501 -0.93985802
6.00879 0.031465001 -0.73779702
6.0727301 0.0307371 -0.53130102
6.1554799 0.0290103 -0.32259899
6.2449899 0.027249301 -0.109008
6.32301 0.0176581 0.110369
6.4291601 0.0157104 0.33693901
6.45333 0.0146432 0.56459498
5.6719198 -0.00296981 -1.5197901
5.7526798 -0.0050201602 -1.32811
6.42518 -0.0067284298 0.33673
6.4513502 -0.0078818202 0.564421
5.91822 -0.0082633998 -0.93735498
6.0827498 -0.0116781 -0.53217298
6.2610202 -0.0163914 -0.109287
5.6718702 -0.022768499 -1.5197901
6.3329802 -0.026527699 0.110544
6.4211202 -0.029138301 0.33651999
5.9221101 -0.0289411 -0.93798101
6.1374798 -0.035349701 -0.321657
6.2569299 -0.038221899 -0.109217
5.6794801 -0.042624801 -1.52186
6.3408499 -0.048695199 0.110683
5.7544498 -0.045196299 -1.32856
6.42697 -0.051600099 0.33683401
6.0026898 -0.052384701 -0.73706597
6.1493001 -0.056884099 -0.322285
5.6677098 -0.062322199 -1.51875
6.4568901 -0.075508401 0.56494302
6.0683498 -0.075201899 -0.53095299
6.1610398 -0.0785015 -0.32291299
5.6636 -0.082049899 -1.51771
6.3343501 -0.092873096 0.110578
6.4344401 -0.096587203 0.337253
5.8400202 -0.087664403 -1.1353101
6.4506102 -0.097956002 0.564421
5.9175301 -0.090893902 -0.93735498
6.0720401 -0.0964472 -0.53130102
6.2481899 -0.103608 -0.109078
5.67873 -0.102097 -1.52186
5.7575598 -0.105525 -1.32946
6.4320698 -0.11901 0.33714801
5.85146 -0.108267 -1.1375999
6.4681602 -0.120807 0.56598902
5.9231 -0.111661 -0.93829399
6.0117402 -0.115431 -0.73828501
6.3415499 -0.137266 0.110718
5.7532601 -0.12553699 -1.32856
6.4216299 -0.141242 0.33662501
6.4637198 -0.143296 0.56564099
6.1518698 -0.143903 -0.322494
6.3429999 -0.160558 0.110753
5.76055 -0.14682101 -1.3303601
6.2547302 -0.17034 -0.109217
5.7716599 -0.168274 -1.33306
6.4604998 -0.190615 0.56546599
5.9333901 -0.176099 -0.940171
6.00418 -0.180298 -0.737553
6.0740199 -0.183456 -0.53165001
5.6708899 -0.18316901 -1.5203
6.33569 -0.20574901 0.110648
5.7690902 -0.188357 -1.33261
6.4337001 -0.21118 0.337358
6.4677601 -0.21342801 0.56616402
5.9208999 -0.19641601 -0.93829399
6.1659598 -0.209933 -0.32333201
5.6798701 -0.203308 -1.52289
5.7567201 -0.20807099 -1.32991
6.43891 -0.233854 0.337672
5.6849198 -0.223361 -1.5244401
5.9312301 -0.238223 -0.940171
6.0079198 -0.243403 -0.73828501
6.1563601 -0.252646 -0.32291299
6.26368 -0.25924101 -0.109427
5.68998 -0.241465 -1.526
5.763 -0.24657901 -1.33171
6.4252501 -0.27603799 0.337044
5.8451099 -0.25111499 -1.13722
6.4791999 -0.27948901 0.567384
5.94032 -0.25728199 -0.94173598
6.0110898 -0.26245001 -0.73877198
6.16751 -0.272515 -0.32354099
6.34829 -0.29271501 0.110927
6.4422002 -0.299299 0.33798599
6.4781899 -0.302104 0.567384
5.9314899 -0.27764699 -0.94048399
6.0121198 -0.28352401 -0.739016
6.07795 -0.28769201 -0.53234702
6.26582 -0.300969 -0.109496
6.3412399 -0.314576 0.110823
5.7844901 -0.28796899 -1.33711
5.9225898 -0.29795301 -0.93923301
6.0150599 -0.30471 -0.73950303
6.0808401 -0.31016999 -0.53269601
6.17942 -0.31628001 -0.324274
6.2687302 -0.32304499 -0.109566
5.6851501 -0.30192599 -1.52548
6.3480902 -0.33713299 0.110962
5.77178 -0.30753699 -1.33441
6.3821201 -0.34117499 0.33495
5.9273801 -0.319978 -0.940171
6.01792 -0.325919 -0.73999101
6.1642599 -0.33816099 -0.32354099
5.6937099 -0.32231501 -1.52807
5.7628298 -0.328246 -1.33261
5.93608 -0.34123299 -0.94173598
6.1072102 -0.35641801 -0.32060999
5.7772698 -0.34829301 -1.33621
5.8554502 -0.355057 -1.14027
5.9368901 -0.361036 -0.94204801
5.6971698 -0.36142999 -1.5296201
