# .PCD v0.7 - Point Cloud Data file format
VERSION 0.7
FIELDS x y z
SIZE 4 4 4
TYPE F F F
COUNT 1 1 1
WIDTH 311
HEIGHT 1
VIEWPOINT 0 0 0 1 0 0 0
POINTS 311
DATA ascii
6.0907001 -0.34905499 0.53374201
6.0686898 -0.355232 -0.106111
5.92839 -0.356365 0.103667
5.8808298 -0.358657 0.72341698
5.6785998 -0.36423299 0.497834
5.6457801 -0.36410701 0.694655
5.7962699 -0.37482801 -0.71317899
5.6882801 -0.36884201 -0.498705
5.60711 -0.36750999 -0.098082498
5.5318098 -0.37324199 0.29056901
5.59238 -0.37732801 -1.08952
5.48844 -0.37127799 0.48127401
5.54597 -0.37614101 -0.880413
5.4860401 -0.37303901 0.675156
5.5533099 -0.37858701 -0.68344301
5.47679 -0.374331 0.86946303
5.4921598 -0.37538099 -0.48162299
5.4954901 -0.377536 -0.28868499
5.3352399 -0.37869099 0.28031099
5.36973 -0.38113901 -1.0464
5.30056 -0.37901899 0.65248901
5.2941899 -0.38042101 0.84067899
5.3099699 -0.38155499 -0.46575999
5.1929598 -0.384992 0.090892099
5.1849399 -0.385308 -1.20034
5.1960802 -0.38704699 -1.01281
5.14994 -0.384514 0.45181501
5.1645999 -0.38742101 0.63591403
5.1862998 -0.38995999 -0.63859499
5.1556301 -0.38855901 -0.45233801
5.1291099 -0.38745999 0.99983901
5.1202998 -0.38769299 -0.26911199
5.1084599 -0.38859099 -0.0894261
5.0867801 -0.39408499 -1.36708
4.9780302 -0.38828301 0.26168001
4.98312 -0.391305 0.61373401
4.9704099 -0.39205301 0.78968102
4.95366 -0.39247099 -0.26042399
4.9436202 -0.39341199 -0.0865639
4.8832002 -0.39632401 0.085516803
4.8175201 -0.39522499 0.59350401
4.8134899 -0.396586 0.764965
4.8350902 -0.398366 -0.42444801
4.8388 -0.40037301 -0.254457
4.8474202 -0.40193799 1.12296
4.7681999 -0.40291199 -1.28219
4.7223701 -0.40069899 -1.09416
4.7463398 -0.40356699 0.249643
4.7069001 -0.401041 0.413293
4.69595 -0.403411 0.74650502
4.7184601 -0.406174 -0.41433799
4.6943798 -0.404926 0.915883
4.7119398 -0.40727001 -0.24786299
4.6809602 -0.40459201 1.08471
4.57722 -0.405285 -1.0608701
4.5994401 -0.408871 -0.89756602
4.56283 -0.40641901 -0.72554302
4.5978799 -0.41277599 -0.40388
4.4958 -0.41310599 -1.20972
4.4867702 -0.413856 0.23614
4.467 -0.412819 -0.871997
4.45117 -0.41292199 -0.708022
4.46698 -0.41596201 -0.55084902
4.45679 -0.416583 0.87008899
4.41991 -0.41547 1.18953
4.3453698 -0.41534999 -1.00778
4.3463202 -0.41697201 -0.848719
4.3391199 -0.41857401 -0.53525001
4.3635402 -0.42246699 0.852153
4.33114 -0.420856 1.00463
4.3069801 -0.41926801 -0.075534001
4.2391801 -0.42013699 -0.983486
4.22574 -0.41955101 -0.82543999
4.2487302 -0.422582 0.37355
4.2684999 -0.42680499 -0.52671897
4.2692299 -0.42687801 0.67955101
4.2405 -0.42475301 -0.372852
4.2100701 -0.423931 -0.073858596
4.1434598 -0.42379999 -1.11603
4.1564298 -0.42659301 0.21897399
4.14223 -0.42586601 -0.809412
4.15064 -0.42819399 0.512339
4.14464 -0.428307 -0.511608
4.1477098 -0.43008801 0.81055701
4.1261101 -0.42857501 -0.21740399
4.1440401 -0.431169 0.961891
4.0925999 -0.42726099 1.1025701
4.03828 -0.426579 -1.08808
4.0686598 -0.43050599 0.071415201
4.0036702 -0.42433599 -0.92949802
4.0714998 -0.43224299 0.214577
4.03334 -0.428904 -0.788423
4.0348401 -0.433337 0.78880399
4.0192599 -0.432374 -0.21185599
4.0065799 -0.432423 1.07979
3.96171 -0.43387699 0.069565304
3.9226699 -0.43029499 -0.91105199
3.9380701 -0.43337601 -0.770105
3.9569099 -0.435449 0.34827399
3.95016 -0.43610099 0.48796499
3.9640501 -0.43903601 0.63168198
3.9505799 -0.43824199 -0.34775099
3.93957 -0.43771601 0.77048701
3.84693 -0.43490201 -1.0373501
3.88061 -0.43939501 0.068169102
3.85993 -0.437736 0.203587
3.82919 -0.436281 -0.61040699
3.8578 -0.44022301 -0.476753
3.8342199 -0.43888801 -0.337641
3.7799399 -0.434012 -0.19939999
3.8371899 -0.44058499 0.89170599
3.8103001 -0.43817201 -0.066947401
3.8306501 -0.44118899 1.03321
3.75368 -0.43896401 -0.73461503
3.7669001 -0.44184199 -0.60070801
3.73015 -0.438191 -0.46115401
3.7765501 -0.44431099 0.60227299
3.7120399 -0.437379 -0.32700801
3.76687 -0.44450501 0.73728597
3.69961 -0.43787801 -0.065027699
3.6559801 -0.43789101 -0.98661798
3.6607001 -0.43975201 -0.851215
3.68244 -0.44236299 0.19437601
3.6703401 -0.44156101 -0.71858698
3.66539 -0.441614 0.322999
3.6457801 -0.439897 -0.58162302
3.6854701 -0.44729599 0.72163999
3.68329 -0.447685 0.85661399
3.57781 -0.440568 -0.965913
3.56058 -0.43970799 -0.82827002
3.6135499 -0.44624999 0.190817
3.5538001 -0.44139001 -0.43970501
3.5990601 -0.447649 0.57442701
3.62747 -0.45246801 0.71057302
3.54158 -0.44238299 -0.187049
3.5807099 -0.44854 0.96694797
3.51477 -0.44651201 -0.94934797
3.5389299 -0.45020899 0.062270202
3.49314 -0.445003 -0.81297302
3.52266 -0.44876301 0.18610699
3.5067899 -0.449231 0.43409899
3.47718 -0.44605401 -0.43044299
3.5228601 -0.45191401 0.56253803
3.51861 -0.45261699 0.68958402
3.47647 -0.447813 -0.183699
3.5195 -0.45398 0.81927198
3.4965799 -0.45164499 0.94468999
3.4289 -0.44777101 -0.92657202
3.41432 -0.44768599 -0.66935802
3.4059501 -0.44719201 -0.54407901
3.43837 -0.452059 0.42581201
3.4112599 -0.450313 -0.301036
3.42524 -0.45337501 0.79767603
3.4164701 -0.453426 0.92346603
3.3469801 -0.44836599 -0.90483099
3.36256 -0.451648 -0.78328001
3.37256 -0.454189 0.29772401
3.36498 -0.45556101 0.53782201
3.36954 -0.45677701 0.66096199
3.36571 -0.45745501 0.78417897
3.35852 -0.457075 -0.059163701
3.3383 -0.454916 0.90276098
3.31422 -0.45634899 0.058395799
3.29919 -0.45486599 -0.76888299
3.3199201 -0.458314 0.175639
3.29544 -0.45728001 -0.40850601
3.2909701 -0.45724499 0.52624601
3.2862501 -0.457174 0.644934
3.28177 -0.45713401 -0.17365099
3.29654 -0.45977899 0.76843297
3.2472701 -0.45868501 0.057243899
3.2550099 -0.46093899 0.17229
3.22487 -0.45666999 -0.63310403
3.1956401 -0.454238 0.396319
3.2427299 -0.46150801 -0.40216899
3.23264 -0.46064901 0.51717198
3.22439 -0.46004599 0.63310403
3.1823101 -0.46084699 0.0561269
3.18223 -0.46196899 0.168522
3.18819 -0.463402 0.28186199
3.1452501 -0.45772099 -0.50340599
3.1567099 -0.459952 0.39168799
3.1645601 -0.46222299 0.50653499
3.1605999 -0.462208 0.620893
3.1659901 -0.46412599 0.73873901
3.1675701 -0.46492299 -0.055882599
3.16133 -0.46456999 0.85617298
3.09378 -0.45960799 -0.72209299
3.1109099 -0.46270901 -0.61135203
3.1045599 -0.46287099 -0.49714899
3.09815 -0.46246901 0.38462001
3.1026599 -0.46480301 0.60982603
3.1108899 -0.46658999 -0.164858
3.10847 -0.466782 0.72569197
3.0789199 -0.46289501 -0.0543468
3.1062 -0.46755099 0.84167999
3.02776 -0.46114901 -0.59532398
3.03458 -0.46327099 -0.48619801
3.0455 -0.465482 0.37828201
3.04019 -0.465758 0.48713699
3.0460701 -0.46774599 -0.16150901
3.04567 -0.46877301 -0.053788301
3.0396299 -0.46838701 0.82407999
2.97034 -0.46142501 -0.80544502
2.9749601 -0.46320701 -0.695099
2.99172 -0.46634999 0.158683
2.9815199 -0.46476099 -0.58654702
2.9948201 -0.46844101 0.37218899
3.0084701 -0.471113 -0.37389499
2.9917099 -0.469024 0.479628
2.9781101 -0.466892 -0.263733
3.0081799 -0.47214401 0.59188998
2.9832499 -0.46876499 -0.158264
3.0204301 -0.47514701 0.70589602
2.98475 -0.47006801 -0.0527412
2.98645 -0.470871 0.81010401
2.91559 -0.46439201 -0.681602
2.9466801 -0.469872 0.15638
2.9333501 -0.46774599 -0.57738799
2.9181299 -0.466364 -0.468052
2.9382801 -0.47011101 0.36536399
2.948 -0.472193 -0.36658299
2.93712 -0.470976 -0.26024699
2.9328499 -0.470817 0.57738799
2.9184899 -0.46903399 -0.15491401
2.92781 -0.47158101 -0.051763799
2.90536 -0.47264701 0.0513799
2.8601 -0.46579599 -0.66900402
2.8977101 -0.47244099 0.153868
2.9003899 -0.47339901 0.25710899
2.8817699 -0.47139201 0.35854
2.87973 -0.47157401 -0.35829601
2.88237 -0.47252199 -0.255541
2.87113 -0.47119501 0.56555802
2.8785901 -0.47345099 0.67350298
2.88274 -0.47465 -0.050995901
2.8915999 -0.47662801 0.78525698
2.8243201 -0.469082 -0.76713997
2.8602901 -0.47556999 0.050611999
2.81616 -0.46873799 -0.65910703
2.8566401 -0.475988 0.151774
2.8215599 -0.47014299 -0.55601698
2.8515601 -0.47565299 0.25292599
2.82128 -0.47110799 -0.45303401
2.84095 -0.474902 0.35366499
2.8232501 -0.472449 -0.35147101
2.8413999 -0.475997 -0.25205401
2.84237 -0.47666901 0.560215
2.8480101 -0.47966 0.77386898
2.76933 -0.46988899 -0.75264603
2.8027401 -0.47757101 0.248742
2.7748301 -0.47331399 -0.445838
2.7962301 -0.477465 0.34830299
2.7834899 -0.478791 0.756787
2.7465701 -0.47638899 0.048657302
2.7588 -0.47950301 0.14675
2.7377501 -0.47781301 -0.341234
2.7534499 -0.48105001 0.44271001
2.74247 -0.48011699 -0.145913
2.7130301 -0.48179799 0.241073
2.6742201 -0.47538799 -0.430195
2.7008801 -0.48110101 -0.33684701
2.6989601 -0.481244 -0.23985299
2.69033 -0.48019001 0.53121197
2.6817901 -0.47914901 -0.142773
2.7067201 -0.48409101 0.634812
2.6947401 -0.48243299 -0.047784701
2.6387801 -0.47621799 -0.71848202
2.6684 -0.48204401 0.047330901
2.6649799 -0.48238701 0.14193501
2.6466501 -0.47906899 -0.52281702
2.6563001 -0.48225299 0.331485
2.6523099 -0.482007 -0.33099699
2.6722901 -0.486119 0.430195
2.6698201 -0.48567 -0.23741201
2.65134 -0.483742 0.62221497
2.6547999 -0.485331 0.72314
2.5929101 -0.478228 -0.60871798
2.6292701 -0.48588201 0.233926
2.6214199 -0.48537901 0.32734099
2.6076701 -0.48330399 -0.32563499
2.6278501 -0.487517 0.42331201
2.62501 -0.48699099 -0.233577
2.64252 -0.49071601 0.52243501
2.6170599 -0.48693401 0.61456603
2.6028399 -0.48475799 -0.046213999
2.5404601 -0.47681099 -0.69260001
2.5824201 -0.48515299 0.045864899
2.56442 -0.482234 -0.60241902
2.5791099 -0.48546299 0.137539
2.5903599 -0.48804799 0.23061401
2.56039 -0.48286501 -0.41267401
2.5885 -0.48863399 0.323441
2.5728099 -0.48613799 -0.321491
2.5989499 -0.49154699 0.41893199
2.5606501 -0.484303 -0.227999
2.5867801 -0.489712 0.51174998
2.5657699 -0.48712701 -0.045585699
2.55266 -0.485098 0.69622302
2.5375099 -0.48589101 0.045097001
2.52635 -0.48421299 -0.593871
2.5381701 -0.48693699 0.135445
2.51809 -0.48308501 -0.498393
2.5416801 -0.48807001 0.226431
2.54584 -0.48979101 0.31832299
2.5314701 -0.48840001 -0.225559
2.54072 -0.49018401 0.50297302
2.5542901 -0.49372801 0.60061902
2.5092199 -0.485926 0.68483502
2.50509 -0.489663 0.133771
2.51405 -0.49369201 0.40579101
