# .PCD v0.7 - Point Cloud Data file format
VERSION 0.7
FIELDS x y z intensity
SIZE 4 4 4 4
TYPE F F F F
COUNT 1 1 1 1
WIDTH 1176
HEIGHT 1
VIEWPOINT 0 0 0 1 0 0 0
POINTS 1176
DATA ascii
6.4495301 -0.71545303 0.34007901 0
6.4554701 -0.71725202 0.56825501 0
6.4292898 -0.71888798 1.02465 0
6.4312 -0.71910203 -0.56616402 0
6.4384899 -0.72105402 1.25934 0
6.4327798 -0.721551 -0.33924201 0
6.4138799 -0.72056502 1.49008 0
6.41255 -0.72154897 -0.112638 0
6.4194698 -0.723463 1.73098 0
6.3954 -0.73205698 0.337358 0
6.3955202 -0.73320103 0.5632 0
6.3797302 -0.73364699 0.788495 0
6.3776898 -0.73566699 1.01682 0
6.39498 -0.73879302 1.25133 0
6.3885498 -0.73918098 -0.337044 0
6.3643098 -0.73862702 -0.111835 0
6.3689399 -0.740291 1.71804 0
6.3590899 -0.75039703 0.33557799 0
6.3414798 -0.74944103 0.55866802 0
6.3376999 -0.75123799 0.78362 0
6.3147998 -0.76752901 0.33338001 0
6.2975998 -0.76878601 0.77898902 0
6.2880802 -0.77208 -0.332019 0
6.3053999 -0.77532297 1.46668 0
6.3003402 -0.77693301 1.70096 0
6.2823501 -0.78362203 0.110509 0
6.2683301 -0.78965098 -0.552742 0
6.2516599 -0.78976899 -0.33024001 0
6.2630901 -0.79454499 1.69164 0
6.2518101 -0.80198401 0.11002 0
6.21137 -0.802306 0.768996 0
6.2081099 -0.80408901 0.99148202 0
6.2378702 -0.807944 -0.55030102 0
6.2231202 -0.80824202 -0.328879 0
6.19275 -0.80649698 -0.109008 0
6.1955299 -0.81895798 0.32751799 0
6.1901598 -0.81934702 0.54629201 0
6.1641502 -0.820283 0.98491198 0
6.1810498 -0.82582498 1.43969 0
6.1712298 -0.82670701 1.66835 0
6.1588702 -0.83380598 0.108484 0
6.16295 -0.83654898 0.325948 0
6.1292801 -0.83851701 -0.541237 0
6.1499 -0.84352499 -0.32532001 0
6.14323 -0.84370202 1.43159 0
6.1319399 -0.843243 1.65851 0
6.12012 -0.85141402 0.107856 0
6.08845 -0.85242498 0.75485897 0
6.0929599 -0.85631001 1.19599 0
6.10358 -0.85997498 1.42304 0
6.1087198 -0.86070001 -0.107681 0
6.0875702 -0.86747301 0.107332 0
6.0864201 -0.87164497 0.537925 0
6.0580802 -0.86866599 0.75144601 0
6.0633202 -0.87157702 0.97020698 0
6.0759501 -0.874475 -0.537054 0
6.0609398 -0.87231499 1.1902699 0
6.0629702 -0.87368703 -0.32102901 0
6.0601902 -0.87436599 1.41359 0
6.0685501 -0.87773502 1.64298 0
6.0293498 -0.88281101 0.319354 0
6.0275102 -0.88576603 0.748034 0
6.0360098 -0.892398 -0.31977299 0
6.0281801 -0.89124 1.40684 0
6.0159402 -0.90123498 0.10618 0
6.0043502 -0.90164202 0.318203 0
5.9885702 -0.904616 0.95925599 0
5.99716 -0.90912598 -0.317889 0
5.9902 -0.90807098 1.3987499 0
5.9780798 -0.90836799 1.6202101 0
5.97929 -0.92030102 0.31705099 0
5.96455 -0.91909802 0.52798897 0
5.9584198 -0.92454201 -0.31600499 0
5.9579401 -0.925533 1.392 0
5.94561 -0.92467999 -0.105029 0
5.9342699 -0.93246597 0.104854 0
5.9346099 -0.934641 0.31485301 0
5.9317799 -0.93525797 0.52537501 0
5.90973 -0.93389499 0.73462802 0
5.91365 -0.93663102 0.94830602 0
5.9043498 -0.93621302 1.16203 0
5.8993902 -0.948098 0.104296 0
5.8793101 -0.95118803 0.94330001 0
5.8907099 -0.95619702 -0.31276 0
5.8784099 -0.95420098 1.3749 0
5.8839102 -0.95614702 -0.104051 0
5.8900599 -0.958202 1.5989799 0
5.8514199 -0.96135199 0.31077099 0
5.8390999 -0.964562 0.93735498 0
5.8597298 -0.96902102 -0.51962298 0
5.8559799 -0.97050101 -0.31108499 0
5.8271499 -0.96572298 1.36365 0
5.8487301 -0.971398 1.58863 0
5.81848 -0.97681201 0.309201 0
5.8257399 -0.97907501 0.51683402 0
5.8118901 -0.97883397 0.72365999 0
5.8006301 -0.97902101 0.93172401 0
5.81113 -0.98183602 -0.51561302 0
5.8130898 -0.98321098 1.146 0
5.83286 -0.987602 -0.310038 0
5.8014998 -0.984375 1.57673 0
5.7986498 -0.99326497 0.10269 0
5.7769599 -0.99474001 0.71976 0
5.7716999 -0.99590802 0.92765599 0
5.7858901 -0.99939698 -0.51369601 0
5.7859101 -1.00148 -0.307735 0
5.7750602 -1.00064 -0.102306 0
5.7621598 -1.0098 0.306584 0
5.7477598 -1.0093499 0.51055801 0
5.7526302 -1.01331 0.92515397 0
5.7411699 -1.01232 -0.51003498 0
5.7266402 -1.01079 1.13035 0
5.7400198 -1.01522 -0.101748 0
5.7372398 -1.0157599 1.5612 0
5.7214198 -1.02223 0.30459499 0
5.71035 -1.0254 0.91889602 0
5.71032 -1.02642 -0.507595 0
5.7039299 -1.0263 1.1265399 0
5.7140899 -1.02916 -0.304281 0
5.6785402 -1.03811 0.70879197 0
5.6851501 -1.04239 -0.505678 0
5.68119 -1.04167 1.12272 0
5.6694002 -1.0436 1.5446301 0
5.66644 -1.05123 0.100596 0
5.6442599 -1.05528 -0.50236601 0
5.6427898 -1.0580601 -0.100212 0
5.6277399 -1.05625 1.5342799 0
5.6234298 -1.07171 0.90669399 0
5.6111898 -1.06938 -0.499751 0
5.6060901 -1.06942 1.10936 0
5.6010699 -1.07251 1.52807 0
5.6005101 -1.08254 0.29894301 0
5.5984001 -1.08315 0.49887899 0
5.5753398 -1.08374 1.10402 0
5.5574999 -1.09437 0.29685 0
5.5518599 -1.09829 0.89636999 0
5.5664501 -1.10118 -0.49643901 0
5.5522399 -1.1003799 -0.29664001 0
5.5422802 -1.10142 1.5140899 0
5.5451298 -1.1100399 0.098710798 0
5.5281901 -1.10866 0.29548901 0
5.5092702 -1.1098599 0.89011198 0
5.5195999 -1.11194 -0.49260399 0
5.5248699 -1.11501 -0.29538399 0
5.5057402 -1.11315 -0.098047599 0
5.5098701 -1.123 0.098152302 0
5.50667 -1.12435 0.29454699 0
5.4886899 -1.12667 1.0891401 0
5.4974699 -1.12947 -0.294128 0
5.47826 -1.12652 1.2912199 0
5.4720201 -1.12723 1.49701 0
5.4628401 -1.1332901 0.097384401 0
5.47925 -1.13869 0.293291 0
5.46277 -1.13825 0.68514901 0
5.4512501 -1.13783 -0.48720101 0
5.4586902 -1.14336 -0.097349502 0
5.4396901 -1.14037 1.4892401 0
5.4316502 -1.15354 -0.48580599 0
5.4096298 -1.14985 1.07502 0
5.4150901 -1.15398 1.48355 0
5.3885198 -1.16405 1.0715801 0
5.3996501 -1.16745 -0.28952301 0
5.3999701 -1.16949 -0.096441999 0
5.3903098 -1.17626 0.096302398 0
5.35992 -1.17159 0.287534 0
5.3738999 -1.17563 0.48127401 0
5.3594198 -1.1754 -0.67369401 0
5.3787098 -1.1816 -0.48179701 0
5.3682399 -1.18028 -0.288057 0
5.3499198 -1.17723 1.26467 0
5.3607001 -1.18059 -0.095813699 0
5.3607898 -1.18944 0.095848598 0
5.3401999 -1.18683 0.28669599 0
5.3287101 -1.1862299 0.477613 0
5.3361101 -1.18885 0.67125601 0
5.3317699 -1.19081 -0.47796199 0
5.3443799 -1.19559 -0.28701001 0
5.3227501 -1.19173 1.25928 0
5.31739 -1.20028 0.095150501 0
5.3007498 -1.20138 -0.66735703 0
5.2954102 -1.20309 1.05556 0
5.30546 -1.20635 1.25613 0
5.2860899 -1.21165 0.094661899 0
5.2754502 -1.2140599 -0.664675 0
5.2691798 -1.21455 -0.47308099 0
5.2627001 -1.21402 1.04983 0
5.2691498 -1.21648 1.24848 0
5.27033 -1.21772 -0.094417498 0
5.2606201 -1.22418 0.094277903 0
5.2523999 -1.22517 0.471861 0
5.2443299 -1.22522 0.66126299 0
5.2383199 -1.22478 -0.660532 0
5.25348 -1.22929 -0.47203499 0
5.25034 -1.23049 -0.28261399 0
5.23101 -1.23656 0.093824103 0
5.22226 -1.23642 0.28125301 0
5.1946101 -1.24903 0.27999699 0
5.1894798 -1.24876 0.46698001 0
5.1951299 -1.25204 0.65614498 0
5.1910501 -1.25201 -0.65565699 0
5.1905398 -1.2528501 -0.46715501 0
5.18504 -1.25248 1.03686 0
5.1989102 -1.25679 -0.28031099 0
5.1708899 -1.25097 1.22823 0
5.1756601 -1.25308 -0.092951499 0
5.1717401 -1.26073 0.0929166 0
5.1579499 -1.26214 0.65200102 0
5.1609802 -1.2647901 -0.46488899 0
5.1463099 -1.26215 1.02999 0
5.1634498 -1.26731 -0.27863699 0
5.1634798 -1.26923 -0.092811897 0
5.1325302 -1.26257 1.41626 0
5.1459599 -1.2735 0.092532702 0
5.1489301 -1.27614 0.278009 0
5.1226802 -1.27248 0.64810097 0
5.13167 -1.27662 0.83754998 0
5.1410699 -1.27895 -0.463494 0
5.11901 -1.27442 1.0254101 0
5.1279898 -1.2776 -0.27696201 0
5.1168499 -1.27767 1.41315 0
5.10463 -1.28504 0.460531 0
5.0910401 -1.2844501 -0.64468902 0
5.1012101 -1.28891 1.02274 0
5.1002598 -1.28962 -0.27570599 0
5.0932798 -1.2888 1.21294 0
5.0943098 -1.29852 0.0917648 0
5.0829 -1.3003401 0.64420098 0
5.0652299 -1.2977 0.82816398 0
5.0760398 -1.30047 -0.45843899 0
5.0738602 -1.30086 1.01816 0
5.0646901 -1.30133 -0.091276102 0
5.0666399 -1.30278 1.40176 0
5.06458 -1.30979 0.091311 0
5.0552802 -1.31209 0.64127702 0
5.0406199 -1.31016 -0.45565 0
5.0521898 -1.31411 1.01472 0
5.03403 -1.31314 1.3940001 0
5.0270901 -1.31883 0.090717599 0
5.0195999 -1.31968 0.454081 0
5.0216398 -1.32302 -0.63761997 0
5.0039101 -1.32022 1.00595 0
5.0012002 -1.3307199 0.0903337 0
5.0042901 -1.33341 0.27141401 0
4.9807901 -1.32994 0.63298899 0
4.99793 -1.33639 0.81940401 0
4.9928498 -1.33503 -0.45216399 0
4.9891601 -1.33591 -0.27068201 0
4.9787898 -1.33406 1.18999 0
4.9772201 -1.34296 0.089984603 0
4.9548001 -1.3424799 -0.63030797 0
4.9667802 -1.3457201 0.81502402 0
4.9727802 -1.34828 -0.45076999 0
4.9623599 -1.34638 0.99945801 0
4.9496498 -1.34479 1.18414 0
4.96908 -1.35007 -0.0898799 0
4.94099 -1.35541 0.62909001 0
4.9430699 -1.35876 -0.44850299 0
4.9465098 -1.35971 0.997168 0
4.9263802 -1.35602 1.1796401 0
4.9373498 -1.35997 -0.089391202 0
4.9390802 -1.36138 1.37278 0
4.9203 -1.36637 0.44676 0
4.9073 -1.36553 -0.62543398 0
4.9152498 -1.36959 0.99182498 0
4.9053702 -1.37791 0.088937499 0
4.8931899 -1.3791 0.62421501 0
4.8853102 -1.3778 -0.62323999 0
4.88375 -1.38012 0.98648298 0
4.8912201 -1.38315 -0.26639 0
4.8853998 -1.38243 -0.0886233 0
4.87184 -1.37951 1.35673 0
4.8714399 -1.38767 0.088413902 0
4.8644099 -1.38842 0.442577 0
4.85814 -1.39121 0.98228502 0
4.8594799 -1.39252 -0.264925 0
4.8610802 -1.39481 -0.0882743 0
4.85747 -1.39469 1.35414 0
4.8428798 -1.39966 0.26419199 0
4.8219399 -1.3972501 -0.61641502 0
5.5910902 1.49709 0.303339 128
5.5799098 1.492 0.50532901 128
5.5864801 1.49062 0.91576701 128
5.5963502 1.49221 -0.50672299 128
5.5912499 1.48876 -0.30323499 128
5.6009202 1.47983 0.101119 128
5.5927901 1.47455 0.50602603 128
5.60923 1.47469 -0.50742102 128
5.5794601 1.46375 1.33171 128
5.5996299 1.46904 -0.101049 128
5.6096702 1.46226 0.101189 128
5.6036901 1.45652 0.506549 128
5.5968699 1.4536999 0.71001101 128
5.6086502 1.4557199 -0.71147299 128
5.59484 1.45109 0.91545498 128
5.6124201 1.4546 -0.50724602 128
5.60636 1.45304 1.12577 128
5.6128502 1.45368 -0.30386299 128
5.5880599 1.44621 1.33261 128
5.5943699 1.44576 1.54826 128
5.5949798 1.43446 0.50532901 128
5.6136999 1.43613 -0.71147299 128
5.6094999 1.43297 1.1253901 128
5.6275702 1.43654 -0.30438599 128
5.6097498 1.4299099 -0.101049 128
5.6021299 1.41444 0.505503 128
5.6243701 1.41588 -0.50742102 128
5.6166401 1.4108 -0.101084 128
5.6210399 1.40148 0.101119 128
5.6139498 1.39452 0.71025503 128
5.6392398 1.39975 -0.71342301 128
5.6250601 1.39623 0.91795802 128
5.6370101 1.39815 -0.50811797 128
5.6312399 1.39359 -0.101259 128
5.6092 1.3871 1.54826 128
5.6331501 1.38051 0.50742102 128
5.6185498 1.37589 0.71025503 128
5.6361399 1.37916 -0.712448 128
5.6337399 1.37753 0.91858298 128
5.65734 1.38225 -0.50951201 128
5.6345401 1.37564 -0.303967 128
5.6399598 1.3748699 -0.101329 128
5.6357098 1.36238 0.30386299 128
5.6329598 1.35859 0.71147299 128
5.6308298 1.3559999 0.91733199 128
5.6490202 1.3583 -0.30449101 128
5.6276102 1.35211 1.33621 128
5.6300201 1.35061 1.55136 128
5.64432 1.34363 0.30407199 128
5.6454 1.34076 0.712448 128
5.63937 1.33725 0.91795802 128
5.6549902 1.34095 -0.50846702 128
5.6615 1.34041 -0.30490899 128
5.6455202 1.33455 -0.101259 128
5.6271801 1.32917 1.5492899 128
5.6420999 1.31607 1.12615 128
5.6501899 1.3158799 1.33936 128
5.67419 1.30478 -0.71488601 128
5.67168 1.30316 0.92171198 128
5.6719799 1.30322 -0.50916398 128
5.6543198 1.29813 1.1276799 128
5.66045 1.29746 1.34071 128
5.65516 1.29417 1.5544699 128
5.67623 1.29065 0.101608 128
5.6697602 1.28606 0.508641 128
5.6591301 1.28157 0.712448 128
5.67484 1.28409 -0.71439803 128
5.6684799 1.28161 0.920461 128
5.6865001 1.28151 -0.101748 128
5.6690602 1.27654 1.55706 128
5.6742201 1.2673 0.30469999 128
5.67519 1.2644 0.713911 128
5.6792898 1.2642699 -0.71439803 128
5.6729202 1.2618099 0.920461 128
5.68049 1.26246 1.13112 128
5.6874599 1.26297 -0.30532801 128
5.6942201 1.25091 0.30553699 128
5.6805501 1.24687 0.50881499 128
5.6873298 1.24628 0.71488601 128
5.6953001 1.24698 -0.71586102 128
5.68115 1.2428499 0.92108601 128
5.6950498 1.24588 -0.51003498 128
5.7460799 1.2539001 1.3578 128
5.6855402 1.23965 -0.101573 128
5.6894302 1.23114 0.101608 128
5.6809702 1.22619 0.50846702 128
5.6916399 1.22642 0.71488601 128
5.6893201 1.22384 0.92171198 128
5.6910801 1.2231801 1.1315 128
5.7117701 1.22658 -0.30616501 128
5.75423 1.23465 1.3587 128
5.7023902 1.21312 0.30553699 128
5.6954699 1.2085299 0.71488601 128
5.7073302 1.2100101 -0.71634799 128
5.697 1.20678 0.92233801 128
5.6999602 1.20533 -0.30532801 128
5.7189999 1.19789 0.101992 128
5.7065902 1.19321 0.30553699 128
5.7268701 1.19224 -0.51177901 128
5.7107201 1.17328 0.30553699 128
5.7243299 1.16984 1.1357 128
5.7277999 1.1695 -0.306375 128
5.7175598 1.1653301 -0.101852 128
5.7265301 1.15571 0.30616501 128
5.7168698 1.15169 0.51020998 128
5.7151299 1.1482199 0.92327601 128
5.7305102 1.14923 1.13608 128
5.7353601 1.13771 0.102062 128
5.7286801 1.13327 0.51090699 128
5.7511301 1.13458 -0.71976 128
5.7470598 1.13274 -0.51247603 128
5.7325602 1.12884 1.1357 128
5.7516999 1.13157 -0.307212 128
5.7434201 1.1278501 -0.102166 128
5.75033 1.11775 0.30700299 128
5.7404199 1.11479 0.51160401 128
5.75489 1.11343 -0.512824 128
5.7364602 1.10882 1.1357 128
5.7571402 1.10969 -0.102341 128
5.7579799 1.09735 0.512824 128
5.7723198 1.08339 0.102515 128
5.7506099 1.07412 0.71829802 128
5.76511 1.07371 1.13989 128
5.7748299 1.07447 -0.30783999 128
5.75669 1.06902 -0.102201 128
5.7635002 1.05884 0.307107 128
5.7699499 1.0569 0.72024798 128
5.7818499 1.05804 -0.72171003 128
5.7653899 1.05399 0.92828202 128
5.77389 1.05554 -0.51352203 128
5.7765498 1.05498 1.14142 128
5.7923002 1.05682 -0.30857301 128
5.76826 1.05035 -0.102341 128
5.7828898 1.04155 0.30794501 128
5.7748499 1.03906 0.51334703 128
5.7686 1.03274 1.13913 128
5.7920198 1.03589 -0.30836299 128
5.7797599 1.03162 -0.102481 128
5.7902198 1.02097 0.51439297 128
5.80474 1.0204 -0.72365999 128
5.7936301 1.0153199 -0.30825901 128
5.7969398 1.01486 -0.102725 128
5.79459 1.00507 0.102655 128
5.7863898 0.99844402 0.72097898 128
5.7934599 0.99758399 0.93109798 128
5.8101501 0.99941099 -0.51578802 128
5.7909698 0.99611199 1.14218 128
5.8087802 0.99813098 -0.308887 128
5.8138299 0.98751199 0.102934 128
5.7913399 0.98160899 0.30783999 128
5.8088198 0.98353201 0.51543897 128
5.7996302 0.979891 0.72219801 128
5.7969098 0.97735298 0.93109798 128
5.8173599 0.980802 -0.51613599 128
5.8124599 0.96433401 0.30878201 128
5.8108501 0.96094102 0.72317302 128
5.8305998 0.96315902 -0.72561002 128
5.8152199 0.95853603 1.14562 128
5.8313699 0.96015 -0.309724 128
5.80725 0.954099 -0.102725 128
5.82058 0.94690299 0.102934 128
5.81358 0.94263899 0.51526499 128
5.8141699 0.94064999 0.72317302 128
5.8280001 0.94080001 -0.51648498 128
5.81078 0.936979 1.1440901 128
5.83075 0.939152 -0.309515 128
5.82831 0.93667603 -0.103039 128
5.8198299 0.91760898 1.1452399 128
5.8468099 0.90931499 0.103283 128
5.8442898 0.90265602 -0.726098 128
5.8580599 0.903736 -0.51857698 128
5.8470302 0.89994502 -0.310038 128
5.8467698 0.88528597 0.51735598 128
5.8393998 0.882083 0.72512299 128
5.8651199 0.88387698 -0.51892501 128
5.86199 0.88131201 -0.31066599 128
5.8457098 0.87677699 -0.103179 128
5.8668599 0.870529 0.103528 128
5.8480101 0.86668903 0.309829 128
5.8522701 0.86314398 0.72634101 128
5.87009 0.86472601 -0.728535 128
5.8491802 0.861646 0.93641698 128
5.8681698 0.863397 -0.51892501 128
5.8578401 0.84934801 0.103318 128
5.8587198 0.84530002 0.51787901 128
5.8533101 0.84034801 1.14943 128
5.8706698 0.83029699 0.103493 128
5.8713598 0.82725799 0.51875103 128
5.8599701 0.82356501 0.72658497 128
5.8746099 0.82353199 0.93954599 128
5.88344 0.81116301 0.103667 128
5.8826199 0.80477399 -0.72902298 128
5.87745 0.80301899 0.93954599 128
5.89535 0.80337101 -0.311818 128
5.9040699 0.793015 0.103981 128
5.8927898 0.78835899 0.520145 128
5.8972001 0.785806 -0.73048502 128
5.8762999 0.78198099 0.93892002 128
5.9020801 0.78331202 -0.31202701 128
5.9087901 0.77266198 0.104016 128
5.8995199 0.763071 1.1562999 128
5.92062 0.76475298 -0.31286401 128
5.8983598 0.75978202 -0.103807 128
5.9064898 0.74930698 0.31202701 128
5.90241 0.74564999 0.73048502 128
5.9183002 0.74660498 -0.73243499 128
5.9031801 0.74365097 0.942361 128
5.8982501 0.74198699 1.15554 128
5.9232502 0.74408001 -0.31286401 128
5.9229498 0.73039502 0.31276 128
5.9049802 0.72504002 0.73048502 128
5.9308901 0.72612101 -0.52275997 128
5.9218502 0.72291899 -0.312655 128
5.9155402 0.708529 0.31223601 128
5.92696 0.70884699 0.522237 128
5.91536 0.705365 0.73145998 128
5.9317698 0.70521897 0.94611597 128
5.94526 0.706824 -0.52380598 128
5.92278 0.70310599 1.1593601 128
5.9362402 0.70365298 -0.313283 128
5.9377699 0.70173198 -0.104365 128
5.9335599 0.68653601 0.73341 128
5.9341898 0.68451297 0.94611597 128
5.9496698 0.68629903 -0.52398002 128
5.9310498 0.68309897 1.1605 128
5.93223 0.680089 -0.104226 128
5.93821 0.66922402 0.313178 128
5.94381 0.666704 0.73438501 128
5.9439201 0.66566902 -0.73438501 128
5.9425201 0.66025901 -0.104365 128
5.9500499 0.64638197 0.73487198 128
5.9541101 0.64577103 -0.73536003 128
5.9562998 0.64495701 -0.52415502 128
5.9710798 0.64445001 -0.31474799 128
5.9685602 0.630481 0.31453899 128
5.9822898 0.62665403 0.95268601 128
5.95154 0.622383 1.16317 128
5.9777899 0.61247498 0.104889 128
5.9667501 0.60923898 0.31433001 128
5.96872 0.60417497 0.95018297 128
5.9864302 0.60596699 -0.52642101 128
5.9595399 0.602198 1.16432 128
5.9869099 0.601798 -0.105029 128
6.00178 0.59376901 0.105273 128
5.9827499 0.58977699 0.31506199 128
5.98809 0.58924901 0.52642101 128
5.9724002 0.58454698 -0.73682201 128
5.96489 0.582762 0.94924402 128
5.9944501 0.58565003 -0.52694398 128
5.98701 0.58386803 1.1692801 128
5.98102 0.58012199 -0.104889 128
5.97821 0.56721503 0.52537501 128
5.9763799 0.56388402 -0.73706597 128
5.9948702 0.56351501 1.1704201 128
5.9889798 0.559798 -0.104994 128
5.9861102 0.54688603 0.52589798 128
5.9960098 0.54567999 0.73926002 128
6.0079598 0.54571098 -0.740722 128
5.98455 0.54253101 0.951747 128
5.9997001 0.53018397 0.105133 128
6.0164499 0.529544 0.31652799 128
5.99787 0.52474499 0.73926002 128
6.02209 0.52474803 -0.52886099 128
6.0056 0.50430799 0.73999101 128
6.0076699 0.50342202 -0.74023402 128
6.0278602 0.50405502 -0.52920997 128
6.0082698 0.50136399 1.17195 128
6.0183401 0.50008601 -0.105413 128
6.0199199 0.48858199 0.31652799 128
6.01722 0.484135 -0.74120897 128
6.0295801 0.48301199 -0.52920997 128
6.0280199 0.479711 -0.105552 128
6.0307498 0.46404099 -0.74267203 128
6.04111 0.44787201 0.31747001 128
6.0381899 0.44447801 0.74340302 128
6.0426602 0.44268599 -0.53008097 128
6.0496202 0.441073 -0.317889 128
6.0471802 0.43877 -0.105831 128
6.04387 0.42898801 0.105762 128
6.0525999 0.42748699 0.31799299 128
6.0518298 0.426368 0.53077799 128
6.0437999 0.42156601 0.95956898 128
6.0580802 0.422562 -0.53130102 128
6.0511198 0.41995201 -0.317889 128
6.0470901 0.40270799 0.74413401 128
6.0511198 0.401916 -0.74462199 128
6.0694599 0.40206999 -0.53217298 128
6.0660601 0.39759201 -0.106111 128
6.0686698 0.38819101 0.106146 128
6.0634098 0.38572901 0.31841201 128
6.05863 0.38436401 0.53112698 128
6.0738401 0.378943 -0.31893501 128
6.06142 0.37604401 -0.106006 128
6.0819702 0.36772999 0.106355 128
6.0794802 0.36225301 0.74778998 128
6.0830998 0.35820699 -0.319354 128
6.0812201 0.34638301 0.10632 128
6.0847301 0.34019101 -0.74827802 128
6.0747299 0.33856601 0.96363598 128
6.0883002 0.33719301 -0.319563 128
6.0762501 0.32163301 0.53234702 128
6.1043301 0.318849 -0.53478801 128
6.09343 0.31614399 -0.31977299 128
6.1120501 0.31390199 1.6398799 128
6.1034598 0.30491701 0.106669 128
6.0801702 0.301626 0.31904 128
6.0908699 0.29895699 0.74876499 128
6.1065402 0.297593 0.96832901 128
6.1153598 0.298022 -0.53565902 128
6.0964899 0.29497001 -0.319877 128
6.09832 0.29399201 1.4095401 128
6.1140199 0.29367599 -0.106844 128
6.0931602 0.280954 0.31966799 128
6.1077399 0.278422 0.75071502 128
6.1016302 0.27600601 0.96739101 128
6.1143699 0.276582 -0.53548503 128
6.0934701 0.27243999 1.40819 128
6.1044402 0.270796 1.63729 128
6.11343 0.26264599 0.106809 128
6.1100602 0.26036099 0.32050499 128
6.1126399 0.257265 0.751203 128
6.1047502 0.25586301 -0.75022799 128
6.1323299 0.253802 -0.321657 128
6.1223001 0.24161801 0.106948 128
6.1248999 0.23958001 0.32123801 128
6.1293702 0.23654 0.75315303 128
6.10958 0.23470899 -0.75071502 128
6.1307502 0.230161 -0.107088 128
6.11584 0.22853599 1.6398799 128
6.1366901 0.21751601 0.53722799 128
6.1222301 0.214863 0.75217801 128
6.0984602 0.212963 -0.74925297 128
6.14082 0.21337301 -0.53757697 128
6.1236601 0.211704 1.19103 128
6.1299601 0.21085 -0.32144701 128
6.1368899 0.210016 1.41764 128
6.15135 0.19654 0.53844798 128
6.1423998 0.191962 0.97333503 128
6.1361299 0.19069099 1.19332 128
6.14463 0.18988401 -0.32218 128
6.1356401 0.188535 1.41719 128
6.1462002 0.187783 -0.107332 128
6.1385198 0.186479 1.64557 128
6.152 0.175065 0.53844798 128
6.1434202 0.172677 0.75461501 128
6.0878901 0.17005 -0.74778998 128
6.1620798 0.171047 -0.53931999 128
6.1498899 0.167486 1.4203399 128
6.1508098 0.166437 -0.107402 128
6.1449299 0.165204 1.64712 128
6.15906 0.15697899 0.107542 128
6.1565599 0.15369 0.53879702 128
6.1554399 0.149362 0.97521299 128
6.1626401 0.149537 -0.53931999 128
6.1593499 0.145155 -0.107542 128
6.1610398 0.132283 0.53914499 128
6.1718202 0.123893 -0.107751 128
6.1694298 0.11092 0.53984302 128
6.1800299 0.106795 0.97896701 128
6.1794701 0.106786 -0.54071403 128
6.16961 0.105538 1.19943 128
6.1656399 0.101165 1.6523 128
6.1842999 0.086357303 0.97959298 128
6.19349 0.0843205 1.204 128
6.1849499 0.083127603 -0.32416901 128
6.1865101 0.082065701 -0.107995 128
6.1871901 0.080994703 1.65799 128
6.1946301 0.072442003 0.108135 128
6.1870999 0.071273901 0.324274 128
6.1891599 0.066976503 0.75997698 128
6.1979799 0.0649084 -0.542283 128
6.2055202 0.063904203 1.20629 128
6.19275 0.061611 -0.1081 128
6.1912899 0.060515799 1.65903 128
6.1966 0.044341899 0.98146999 128
6.2155099 0.043392401 1.2082 128
6.2049799 0.0303235 0.10831 128
6.2213998 0.0282322 0.32605299 128
6.2172599 0.024958201 0.76339 128
6.1986899 0.022723 0.98178297 128
6.2215199 0.0217178 1.20935 128
6.2070198 0.0173341 1.66317 128
6.2210498 0.00868758 0.108589 128
6.2133398 0.0032520101 0.76290202 128
6.2254801 -0 1.2101099 128
6.2223301 -0.002172 1.43654 128
6.2390499 -0.0032667599 -0.108903 128
6.2205601 -0.0043427702 1.66679 128
6.2302999 -0.020660499 0.98678899 128
6.2374001 -0.022861401 -0.32688999 128
6.22228 -0.023892 1.43654 128
6.2569399 -0.037129801 0.109217 128
6.23702 -0.042454701 0.765827 128
6.2301898 -0.043495599 0.98678899 128
6.2479701 -0.044710301 -0.54664099 128
6.2547598 -0.045850601 1.21583 128
6.25524 -0.0469459 -0.32783201 128
6.23384 -0.046785399 1.43924 128
6.2338901 -0.0489619 1.6704201 128
6.2567801 -0.057878401 0.109217 128
6.2418599 -0.0610089 0.54611802 128
6.25669 -0.063338101 0.768264 128
6.2506499 -0.066550098 1.21507 128
6.2610402 -0.067753598 -0.32814601 128
6.25667 -0.0687984 -0.109217 128
6.2625499 -0.078701697 0.109322 128
6.2555699 -0.081889898 0.54733801 128
6.2674599 -0.086421899 -0.54838401 128
6.2562799 -0.087359801 1.21622 128
6.2587099 -0.089578897 1.4450901 128
6.2683902 -0.0908117 -0.109427 128
6.2702398 -0.10069 0.109461 128
6.27317 -0.104023 0.54890698 128
6.26443 -0.11044 -0.328356 128
6.2898402 -0.122967 0.109811 128
6.2781401 -0.124931 0.32908899 128
6.2926898 -0.12631901 0.55065 128
6.2834902 -0.12832899 0.77167702 128
6.2985501 -0.131936 -0.55117297 128
6.2657299 -0.13343599 1.44689 128
6.3073702 -0.145337 0.110125 128
6.2816601 -0.14693899 0.32929799 128
6.2921901 -0.149382 0.55065 128
6.27705 -0.15011901 0.77094603 128
6.2739301 -0.152236 0.993985 128
6.2788301 -0.15674099 1.45003 128
6.2930799 -0.157097 -0.10988 128
6.3110299 -0.170771 0.33086801 128
6.2891202 -0.175671 0.99648798 128
6.30545 -0.176127 -0.55186999 128
6.3034801 -0.177173 1.22576 128
6.30162 -0.179322 1.45543 128
6.3187299 -0.19857401 -0.55308998 128
6.3028302 -0.199175 1.22576 128
6.3201299 -0.200826 -0.33139101 128
6.29842 -0.203438 1.68854 128
6.3232799 -0.220814 1.00212 128
6.3319402 -0.22111601 -0.55431098 128
6.3353601 -0.22345001 -0.33222899 128
6.33465 -0.235603 0.110648 128
6.3268499 -0.237524 0.33181 128
6.3278599 -0.24088 0.77752602 128
6.32444 -0.242961 1.00243 128
6.3326702 -0.24438401 1.23186 128
6.3208199 -0.24613599 1.46038 128
6.3401899 -0.247998 -0.110753 128
6.3339701 -0.25993499 0.33222899 128
6.3255301 -0.265118 1.00275 128
6.3435001 -0.26809001 1.2341501 128
6.3495598 -0.269456 -0.33306599 128
6.3296099 -0.26971599 1.46263 128
6.3364701 -0.27111599 1.69941 128
6.35181 -0.286212 0.78069502 128
6.3481498 -0.29159799 1.4671299 128
6.36796 -0.30476099 0.334113 128
6.3583002 -0.306523 0.556925 128
6.3646498 -0.30905601 0.78240103 128
6.3590899 -0.309899 1.0083801 128
6.3700199 -0.311546 -0.557971 128
6.3552599 -0.31193599 1.23682 128
6.3775101 -0.31414399 -0.334636 128
6.3568201 -0.314237 1.46938 128
6.3692498 -0.31485099 -0.111311 128
6.3499198 -0.31500599 1.70355 128
6.36586 -0.33250701 1.00963 128
6.3947601 -0.33513501 -0.56023699 128
6.3804202 -0.3355 -0.33484501 128
6.39008 -0.338245 -0.111695 128
6.3836298 -0.35019499 0.33505499 128
6.3762698 -0.35314 0.78410703 128
6.3975301 -0.357678 -0.56058598 128
6.3603702 -0.35782701 1.4707299 128
6.4042602 -0.37151 0.111975 128
6.3843598 -0.372592 0.33515999 128
6.3849101 -0.37597901 0.785326 128
6.38311 -0.37810799 1.01276 128
6.4081802 -0.380716 -0.56163198 128
6.40975 -0.383055 -0.33651999 128
6.3975401 -0.38344601 -0.11187 128
6.4068098 -0.40308201 -0.56163198 128
6.40838 -0.40542701 -0.33651999 128
6.3965502 -0.405799 1.47973 128
6.41748 -0.41949901 0.337044 128
6.4177599 -0.42514199 1.0187 128
6.4252501 -0.42676401 -0.563375 128
6.4018102 -0.425208 1.24713 128
6.4107199 -0.428047 1.48333 128
6.4186502 -0.42970201 -0.112289 128
6.4239602 -0.44019401 0.112394 128
6.4221501 -0.447954 1.01964 128
6.4337301 -0.448762 -0.564246 128
6.4233999 -0.45029399 -0.33746201 128
6.4330702 -0.45322901 -0.112568 128
6.42836 -0.46304601 0.112498 128
6.4223599 -0.46486801 0.33746201 128
6.4265499 -0.46855301 0.79117602 128
6.4402499 -0.47181201 1.02277 128
6.4520001 -0.472673 -0.56598902 128
6.4221802 -0.47161499 1.2517101 128
6.4317498 -0.473447 -0.33798599 128
6.4308701 -0.47676799 1.72788 128
6.4346399 -0.488341 0.338195 128
6.42871 -0.493534 1.0211999 128
6.43115 -0.49710801 1.48918 128
6.4377298 -0.49874699 -0.112708 128
6.4233899 -0.49876401 1.72632 128
6.4547801 -0.51593798 0.79507601 128
6.4387698 -0.51691997 1.02308 128
6.4700899 -0.52170801 -0.340184 128
6.43894 -0.52258903 1.73098 128
6.4590302 -0.53329903 0.113127 128
6.4550099 -0.53636998 0.56668699 128
6.4784598 -0.54287302 -0.56877798 128
6.4481902 -0.54146999 1.25781 128
6.4781799 -0.54512697 -0.340707 128
6.4779201 -0.547382 -0.113476 128
6.4409299 -0.54538798 1.73202 128
6.4709601 -0.55930799 0.34039301 128
6.47295 -0.56061798 0.56843001 128
6.45995 -0.56517297 1.26048 128
6.4663501 -0.56800699 1.49862 128
6.4562998 -0.56939501 1.73668 128
6.4910002 -0.58159101 0.113755 128
6.4649901 -0.58153498 0.340184 128
6.4628701 -0.584755 0.79678202 128
6.4802098 -0.58860499 1.0305901 128
6.5003099 -0.59043002 -0.57104403 128
6.4794502 -0.58967602 1.26468 128
6.4682102 -0.59092999 1.4995199 128
6.5078001 -0.59569198 -0.114069 128
6.47684 -0.60539901 0.34091601 128
6.5026002 -0.60895199 0.57139301 128
6.4924102 -0.61028397 0.80068201 128
6.5120902 -0.61442697 -0.57226503 128
6.4738698 -0.614241 1.50132 128
6.4984498 -0.63145399 0.57121903 128
6.5100002 -0.63486898 0.803119 128
6.5099101 -0.637155 -0.57226503 128
6.5275798 -0.64118499 -0.343743 128
6.5114398 -0.641895 -0.114209 128
6.5163898 -0.65271997 0.114313 128
6.5188999 -0.66101599 1.0377899 128
6.53936 -0.663091 -0.57505399 128
6.5120802 -0.66376901 1.51122 128
6.5469599 -0.66847903 -0.114872 128
6.5015302 -0.66498798 1.75117 128
6.5258899 -0.67783803 0.34384701 128
6.5216298 -0.67969698 0.573659 128
6.5328798 -0.68778598 -0.344266 128
6.5036201 -0.69848102 0.342801 128
6.4769502 -0.70362198 -0.34143999 128
6.4454098 -0.701334 1.49682 128
6.4746699 -0.705661 -0.113685 128
6.4757299 -0.70692098 1.7454799 128
3.01755 1.49464 -0.77743101 255
3.02249 1.48463 -0.77743101 255
3.0184801 1.45724 -0.77383202 255
3.0378699 1.4529001 -0.77743101 255
3.05407 1.40924 -0.77653098 255
3.05897 1.3985699 -0.77653098 255
3.0651 1.37558 -0.77563101 255
3.07285 1.35337 -0.775181 255
3.0929599 1.33652 -0.77788103 255
3.09324 1.31109 -0.77563101 255
3.0980301 1.29975 -0.77563101 255
3.10412 1.29021 -0.77608103 255
3.1140101 1.2816 -0.77743101 255
3.66764 1.49301 -0.76972401 255
3.1292901 1.24909 -0.77788103 255
3.1277599 1.23711 -0.77653098 255
3.70047 1.4316 -0.77125001 255
3.1355 1.2011 -0.775181 255
3.7131701 1.39273 -0.770868 255
3.7177701 1.38041 -0.770868 255
3.7354701 1.37216 -0.77354002 255
3.1574199 1.1479599 -0.77563101 255
3.7377999 1.3427401 -0.77201301 255
3.1765699 1.12925 -0.77833098 255
3.1790099 1.09276 -0.77608103 255
3.7599001 1.2917 -0.77277601 255
3.1809599 1.08103 -0.77563101 255
3.7569499 1.27604 -0.77125001 255
3.1974499 1.07482 -0.778781 255
3.76719 1.25172 -0.77163202 255
3.20099 1.05181 -0.77788103 255
3.7698901 1.23729 -0.77125001 255
3.1974101 1.03767 -0.77608103 255
3.77232 1.22352 -0.770868 255
4.6022301 1.4909199 -0.76621598 255
3.78778 1.21394 -0.77315801 255
4.5996199 1.47324 -0.764965 255
4.6066198 1.45777 -0.76527798 255
4.6138201 1.44146 -0.76559001 255
3.8064401 1.16084 -0.77354002 255
3.78771 1.12773 -0.768197 255
3.2399299 0.95294899 -0.77968001 255
3.23949 0.94054699 -0.778781 255
3.81058 1.10563 -0.77125001 255
3.23526 0.927086 -0.776981 255
4.6493201 1.3296601 -0.765903 255
3.8087101 1.06198 -0.76857901 255
3.8123901 1.0486799 -0.76857901 255
4.6837201 1.28747 -0.76934499 255
3.26278 0.88647902 -0.78057998 255
3.8366899 1.04169 -0.77277601 255
4.6691198 1.26595 -0.76621598 255
3.84215 1.01371 -0.77239501 255
4.6856999 1.23452 -0.76746798 255
3.8361599 0.99781698 -0.77048701 255
4.6955099 1.2204601 -0.76840597 255
3.2672901 0.838898 -0.778781 255
3.2645299 0.82605398 -0.77743101 255
3.8468399 0.97197098 -0.77125001 255
4.7139802 1.17184 -0.76934499 255
3.8535399 0.94509298 -0.77125001 255
3.8566501 0.93230802 -0.77125001 255
4.7122502 1.1374 -0.76778001 255
3.8522401 0.917023 -0.76972401 255
4.7104301 1.11958 -0.76684201 255
3.28035 0.7694 -0.77788103 255
4.6989198 1.09953 -0.76433903 255
3.27542 0.75619 -0.77608103 255
3.28754 0.746912 -0.77833098 255
4.70263 1.06582 -0.763713 255
3.2920301 0.735856 -0.778781 255
3.8570001 0.861435 -0.768197 255
3.2983799 0.72519702 -0.77968001 255
4.7234602 1.03593 -0.765903 255
4.7193198 1.0177701 -0.76465201 255
3.2878699 0.70006102 -0.77608103 255
4.7302299 1.00458 -0.765903 255
3.3036499 0.69137299 -0.77923 255
3.31177 0.68101299 -0.78057998 255
3.87694 0.796529 -0.76934201 255
3.3141301 0.66944999 -0.78057998 255
4.7406502 0.954162 -0.765903 255
3.3241999 0.65881401 -0.78237998 255
3.88254 0.76876599 -0.76934201 255
3.3150101 0.64497298 -0.77968001 255
3.3057499 0.63120401 -0.776981 255
4.74262 0.90298802 -0.76465201 255
3.8942399 0.72878802 -0.770105 255
3.8773301 0.71232098 -0.766289 255
3.8971801 0.70191699 -0.76972401 255
4.7410002 0.83511502 -0.76246202 255
4.76127 0.82241601 -0.76527798 255
3.33534 0.56592798 -0.78103 255
3.9080701 0.66240299 -0.77048701 255
3.3373001 0.554281 -0.78103 255
3.9064901 0.64811701 -0.76972401 255
3.33921 0.542629 -0.78103 255
3.32569 0.52852201 -0.77743101 255
3.3352201 0.518107 -0.77923 255
3.9247 0.60897899 -0.77201301 255
3.3408599 0.507047 -0.78013003 255
3.9035101 0.59174299 -0.767434 255
4.7715902 0.721636 -0.76433903 255
4.75453 0.70208901 -0.76121002 255
3.9114299 0.56503999 -0.768197 255
3.9249499 0.553711 -0.77048701 255
4.7533302 0.66888303 -0.76027203 255
3.3475299 0.46093601 -0.78013003 255
3.3549099 0.45002601 -0.78148001 255
3.9209299 0.525253 -0.76896 255
4.7715902 0.63751602 -0.76246202 255
3.3622601 0.439069 -0.78283 255
3.35411 0.42610201 -0.78057998 255
4.77005 0.60344499 -0.76152301 255
3.3459001 0.41319701 -0.77833098 255
3.9379101 0.48560801 -0.77125001 255
3.93958 0.47185999 -0.77125001 255
4.7702198 0.56965798 -0.76089698 255
3.3525801 0.39028001 -0.77923 255
4.78194 0.53722602 -0.76214898 255
4.7602201 0.517968 -0.758394 255
3.9653101 0.41887099 -0.77506602 255
4.77771 0.50300199 -0.76089698 255
3.3480101 0.342439 -0.776981 255
3.9472101 0.40303299 -0.77125001 255
3.35306 0.33113399 -0.77788103 255
3.94469 0.38886601 -0.77048701 255
4.7850399 0.47002101 -0.76152301 255
3.3561399 0.319612 -0.77833098 255
4.7768202 0.45238301 -0.75995898 255
3.3727601 0.30932099 -0.78193003 255
3.3505199 0.29549101 -0.77653098 255
4.77002 0.418163 -0.758394 255
3.36022 0.27330801 -0.77833098 255
4.7806301 0.38631901 -0.759646 255
3.35727 0.26127699 -0.77743101 255
4.7898302 0.37024099 -0.76089698 255
4.78441 0.33623901 -0.759646 255
4.7914701 0.31992999 -0.760584 255
3.96365 0.25215101 -0.77201301 255
4.8004498 0.3037 -0.76183599 255
3.3535399 0.20217399 -0.77563101 255
3.95471 0.23772401 -0.770105 255
4.8034501 0.28705999 -0.76214898 255
3.35812 0.190688 -0.77653098 255
3.96139 0.224252 -0.77125001 255
3.97 0.210838 -0.77277601 255
4.7844901 0.23567601 -0.75870699 255
3.35604 0.155331 -0.77563101 255
4.8010702 0.219694 -0.76121002 255
3.3701899 0.144199 -0.778781 255
4.7926202 0.185789 -0.759646 255
4.7932301 0.16906101 -0.759646 255
3.97943 0.127839 -0.77392101 255
3.9723699 0.0998585 -0.77239501 255
6.0924101 0.148894 -0.74827802 255
3.3744099 0.073629797 -0.77923 255
3.9648499 0.085822597 -0.770868 255
3.3629601 0.061636899 -0.77653098 255
3.97297 0.072123699 -0.77239501 255
4.8053298 0.085556097 -0.76121002 255
6.0853701 0.106222 -0.74730301 255
3.9575 0.058023699 -0.76934201 255
3.3652501 0.038766898 -0.776981 255
6.0780001 0.065773599 -0.746328 255
3.9656501 0.031840101 -0.770868 255
4.8039799 0.036891799 -0.76089698 255
6.08216 0.0445874 -0.74681503 255
4.7961702 0.0200928 -0.759646 255
6.0862498 0.0233701 -0.74730301 255
3.3654699 0.00411247 -0.776981 255
4.8060899 0.0033565301 -0.76121002 255
3.9716499 -0.0097046001 -0.77201301 255
4.8119998 -0.0134377 -0.76214898 255
3.37321 -0.020606 -0.778781 255
3.96962 -0.024942201 -0.77163202 255
4.8217902 -0.031979799 -0.763713 255
4.8098001 -0.047851302 -0.76183599 255
3.3729999 -0.0429773 -0.778781 255
4.7997398 -0.063669898 -0.76027203 255
3.3650301 -0.054624502 -0.776981 255
3.96524 -0.0650599 -0.770868 255
3.3687201 -0.066447198 -0.77788103 255
4.80511 -0.097296603 -0.76121002 255
3.9646699 -0.093432702 -0.770868 255
4.7983599 -0.13151599 -0.76027203 255
3.99336 -0.122008 -0.77659303 255
4.79985 -0.14832599 -0.760584 255
3.3830199 -0.114591 -0.78148001 255
3.9811399 -0.135546 -0.77430302 255
6.0826201 -0.211347 -0.74730301 255
4.8006701 -0.181906 -0.76089698 255
6.06598 -0.231971 -0.74535298 255
3.36849 -0.138237 -0.77833098 255
3.38164 -0.150011 -0.78148001 255
3.9677 -0.177397 -0.77201301 255
4.7933602 -0.21515 -0.75995898 255
6.0681801 -0.27449301 -0.74584001 255
4.79456 -0.231977 -0.76027203 255
3.36886 -0.172428 -0.778781 255
3.98405 -0.205309 -0.77544802 255
6.0701299 -0.31599799 -0.746328 255
3.37925 -0.196621 -0.78148001 255
4.80268 -0.29963401 -0.76214898 255
6.07831 -0.38135001 -0.74778998 255
3.971 -0.26027301 -0.77354002 255
4.8115201 -0.31620699 -0.763713 255
3.3808899 -0.232265 -0.78237998 255
6.0834999 -0.42326599 -0.74876499 255
3.38006 -0.244065 -0.78237998 255
4.79737 -0.34893 -0.76183599 255
6.0661402 -0.44334099 -0.74681503 255
3.3752999 -0.25556701 -0.78148001 255
6.07446 -0.465271 -0.748034 255
3.3802199 -0.26780999 -0.78283 255
4.8085999 -0.38351199 -0.76402599 255
6.0708199 -0.48631299 -0.74778998 255
3.3831401 -0.27992901 -0.78372902 255
3.9463401 -0.32722199 -0.76972401 255
3.97843 -0.34387001 -0.77621102 255
6.0653 -0.52851099 -0.74754697 255
3.3714001 -0.30266899 -0.78148001 255
4.78268 -0.43189201 -0.760584 255
3.96029 -0.37017399 -0.77315801 255
3.3808501 -0.32732499 -0.78417897 255
3.9472499 -0.38285801 -0.770868 255
4.79528 -0.46680099 -0.76308697 255
3.3796799 -0.33912501 -0.78417897 255
4.7857599 -0.48274401 -0.76183599 255
6.0454798 -0.61194497 -0.74608397 255
3.9542401 -0.41142201 -0.77277601 255
4.7820802 -0.49924099 -0.76152301 255
6.0273499 -0.65158701 -0.74437797 255
3.3740699 -0.37369299 -0.78372902 255
6.0250401 -0.67262298 -0.74437797 255
3.9459 -0.451671 -0.77201301 255
4.7806101 -0.548908 -0.76214898 255
3.3771901 -0.39792401 -0.785079 255
4.7590499 -0.56326997 -0.75901997 255
3.9484899 -0.479918 -0.77315801 255
6.03476 -0.75915802 -0.74681503 255
3.3593099 -0.43152899 -0.78193003 255
3.9314201 -0.50571901 -0.77048701 255
4.7666001 -0.61484402 -0.76121002 255
6.0281401 -0.77970898 -0.746328 255
3.36937 -0.444783 -0.78462899 255
4.7522898 -0.64760298 -0.759646 255
6.0422101 -0.824458 -0.74876499 255
3.3583801 -0.46780699 -0.78283 255
3.9491401 -0.55079901 -0.77506602 255
3.9297099 -0.56207901 -0.77163202 255
4.75951 -0.68161601 -0.76152301 255
6.0245199 -0.86492699 -0.74730301 255
3.9354899 -0.57693201 -0.77315801 255
4.7356 -0.69507003 -0.75808102 255
6.0293198 -0.88710701 -0.74827802 255
3.92364 -0.58989298 -0.77125001 255
5.98874 -0.90357298 -0.74364698 255
3.3457601 -0.526326 -0.78193003 255
3.93276 -0.63344598 -0.77430302 255
4.7446699 -0.76591998 -0.76121002 255
5.8829198 -0.95071799 -0.731704 255
3.9248199 -0.64552802 -0.77315801 255
5.84448 -0.96440399 -0.72731602 255
3.34027 -0.56016701 -0.78193003 255
4.7472801 -0.79868102 -0.76246202 255
5.7885199 -0.99777102 -0.721223 255
3.3283899 -0.58329201 -0.78013003 255
4.7315698 -0.83174902 -0.76089698 255
5.67836 -1.0391001 -0.70879197 255
4.72469 -0.88078898 -0.76121002 255
5.6493301 -1.05418 -0.70562398 255
3.91945 -0.74342197 -0.77544802 255
5.6317801 -1.07228 -0.70391703 255
3.9110501 -0.75598198 -0.77430302 255
4.7261901 -0.915254 -0.76246202 255
3.9006801 -0.768112 -0.77277601 255
4.72296 -0.93174601 -0.76246202 255
5.5482001 -1.09656 -0.69441199 255
3.31708 -0.66462499 -0.78103 255
3.89605 -0.78133702 -0.77239501 255
4.7312999 -0.95056099 -0.76433903 255
3.3185599 -0.67697901 -0.78193003 255
4.7337599 -0.96825802 -0.76527798 255
3.3238101 -0.690144 -0.78372902 255
4.7168102 -0.98195797 -0.76308697 255
3.3203399 -0.72516501 -0.78462899 255
3.8858099 -0.849374 -0.77315801 255
3.3253901 -0.73843998 -0.78642899 255
4.7007198 -1.04729 -0.762775 255
3.3150599 -0.74890602 -0.78462899 255
3.8777101 -0.87672597 -0.77277601 255
4.6854701 -1.06107 -0.76089698 255
3.29357 -0.75553799 -0.78013003 255
3.88818 -0.89265501 -0.77544802 255
4.70118 -1.08103 -0.76402599 255
3.3024299 -0.76910698 -0.78283 255
3.8928499 -0.90732598 -0.77697402 255
3.8743701 -0.91729099 -0.77392101 255
4.6821198 -1.12753 -0.762775 255
3.8592801 -0.97081703 -0.77354002 255
3.2969301 -0.84099001 -0.78552902 255
3.8615799 -0.98573899 -0.77468503 255
3.2902 -0.85151601 -0.78462899 255
3.8524101 -0.99773598 -0.77354002 255
3.2966299 -0.86547101 -0.786879 255
3.8564999 -1.01317 -0.77506602 255
3.27546 -0.88440001 -0.78328001 255
3.8418901 -1.05246 -0.77430302 255
3.2806301 -0.90979999 -0.78597897 255
3.85162 -1.0688699 -0.77697402 255
4.65346 -1.2931401 -0.764965 255
4.6334801 -1.3059 -0.76246202 255
3.2665401 -0.93111497 -0.78417897 255
3.26408 -0.96748602 -0.78597897 255
3.8225501 -1.14828 -0.77582902 255
4.63836 -1.3951 -0.76715499 255
3.2462399 -0.98628199 -0.78328001 255
3.8222799 -1.16275 -0.77659303 255
3.8146501 -1.17427 -0.77582902 255
3.2468801 -1.0237401 -0.78597897 255
3.7932501 -1.19674 -0.77315801 255
3.23595 -1.04518 -0.785079 255
3.2267201 -1.0546499 -0.78372902 255
3.2323999 -1.08092 -0.786879 255
3.77316 -1.27714 -0.77430302 255
3.2211001 -1.11415 -0.786879 255
3.77736 -1.30729 -0.77697402 255
3.22455 -1.12796 -0.78867799 255
3.2165999 -1.15044 -0.78867799 255
3.7595401 -1.34611 -0.77621102 255
3.2089 -1.16034 -0.78777897 255
3.76613 -1.3625799 -0.77850097 255
3.2048299 -1.17153 -0.78777897 255
3.7426701 -1.36962 -0.77468503 255
3.7562799 -1.38949 -0.77850097 255
3.19947 -1.20834 -0.78957802 255
3.18453 -1.2525001 -0.79002798 255
3.16645 -1.27162 -0.78777897 255
3.15378 -1.31796 -0.78912801 255
3.1475999 -1.32765 -0.78867799 255
3.1465299 -1.34016 -0.78957802 255
3.1193399 -1.39274 -0.78867799 255
