x,y,z,intensity
-0.536391,-0.165118,-0.0294128,15
-0.983449,-0.302548,0.237548,33
-0.969079,-0.297942,-0.0176967,17
-0.879005,-0.270081,0.246396,31
-1.73065,-0.529112,0.0315889,8
-1.71153,-0.522615,0.093786,15
-1.71888,-0.524532,0.157229,14
-1.0045,-0.306147,0.128938,13
-1.02992,-0.313504,0.170514,13
-0.503195,-0.15317,-0.0460182,10
-1.01802,-0.309687,0.206837,48
-0.538875,-0.163825,-0.0295175,100
-0.965853,-0.293449,0.233049,26
-0.968199,-0.293977,-0.0176618,14
-0.661805,-0.200819,0.185314,60
-1.73248,-0.523068,0.0315889,8
-1.70943,-0.515782,0.0935767,18
-1.71689,-0.517379,0.15688,13
-0.990352,-0.298062,0.126988,4
-1.0215,-0.307242,0.168949,23
-0.503727,-0.151413,-0.0460182,10
-1.01534,-0.305002,0.206074,48
-0.547095,-0.164241,-0.0299362,15
-0.923892,-0.277357,0.222702,20
-0.930862,-0.279272,-0.0169637,39
-0.606953,-0.181979,0.169785,60
-1.73804,-0.518463,0.0316587,8
-1.70156,-0.507258,0.0930533,19
-1.70905,-0.50884,0.156009,13
-0.99514,-0.295908,0.127475,8
-1.01115,-0.300477,0.167072,29
-0.496586,-0.147473,-0.045321,10
-1.02199,-0.303309,0.207219,47
-0.551466,-0.163561,-0.0301455,15
-0.721163,-0.213892,0.173662,31
-0.872348,-0.258567,-0.0158817,83
-0.577917,-0.171187,0.161503,75
-1.72441,-0.508175,0.0313794,8
-1.71281,-0.504434,0.0935767,19
-1.70308,-0.500921,0.155312,13
-1.00564,-0.295404,0.128694,14
-0.998873,-0.293227,0.164882,36
-0.487513,-0.143021,-0.0444494,12
-1.0098,-0.296052,0.204547,46
-0.555839,-0.162855,-0.0303549,100
-0.643323,-0.188487,0.154766,48
-0.80987,-0.237129,-0.0147298,100
-0.574773,-0.168184,0.160468,97
-1.72224,-0.501336,0.0313096,8
-1.71448,-0.498751,0.0935767,20
-1.69708,-0.493047,0.154614,14
-0.997081,-0.289301,0.127475,22
-1.00363,-0.291013,0.165508,39
-0.49564,-0.143622,-0.0451467,12
-0.991919,-0.287241,0.200731,46
-0.542946,-0.157124,-0.0296222,100
-0.655176,-0.189602,0.157466,55
-0.666578,-0.192776,-0.012112,100
-0.593887,-0.171641,0.165644,100
-1.72415,-0.494719,0.0313096,8
-1.71446,-0.491614,0.093472,23
-1.70662,-0.488721,0.155312,13
-0.981007,-0.280558,0.125282,29
-1.01044,-0.288786,0.166446,42
-0.494272,-0.14117,-0.0449724,12
-0.994903,-0.283969,0.201113,43
-0.539704,-0.153943,-0.0294128,100
-0.648435,-0.184834,0.155666,64
-0.617313,-0.175963,-0.0112044,100
-0.592683,-0.16883,0.165127,100
-1.72579,-0.488999,0.0313096,9
-1.70848,-0.483451,0.0930533,23
-1.71599,-0.484928,0.156009,16
-0.985753,-0.278383,0.125769,37
-1.00574,-0.283648,0.165508,41
-0.512021,-0.144308,-0.0465412,13
-0.995839,-0.280668,0.201113,47
-0.551746,-0.155401,-0.0300408,15
-0.650921,-0.183211,0.156116,80
-0.587124,-0.165144,-0.010646,7
-0.593269,-0.16676,0.165127,100
-0.597012,-0.166913,0.0108205,13
-1.71593,-0.479096,0.0933674,24
-1.04782,-0.29236,0.0951741,19
-0.99628,-0.277604,0.126988,40
-0.987694,-0.27484,0.162379,39
-0.506738,-0.141007,-0.0460182,12
-0.99303,-0.276138,0.200349,51
-0.550361,-0.152939,-0.0299362,100
-0.659067,-0.183023,0.157916,100
-0.568428,-0.157746,-0.0102969,7
-0.577093,-0.160042,0.160468,100
-0.578314,-0.159511,0.0104714,13
-1.72144,-0.474164,0.0935767,24
-1.69812,-0.46742,0.154091,18
-0.991501,-0.272547,0.126257,42
-0.998172,-0.274006,0.163943,36
-0.499542,-0.137128,-0.045321,12
-0.990201,-0.271631,0.199586,51
-0.550892,-0.151017,-0.0299362,100
-0.646545,-0.177118,0.154766,100
-0.570904,-0.156289,-0.0103318,9
-0.577648,-0.158027,0.160468,100
-0.598162,-0.162741,0.0108205,13
-1.70574,-0.463439,0.0926347,25
-1.69205,-0.459402,0.153394,14
-0.982867,-0.266486,0.125038,43
-0.983869,-0.26639,0.16144,37
-0.490402,-0.13278,-0.0444494,13
-0.981667,-0.26561,0.197678,52
-0.547559,-0.148051,-0.0297268,15
-0.664091,-0.179434,0.158815,100
-0.575307,-0.155337,-0.0104016,9
-0.572601,-0.1545,0.158915,100
-0.567825,-0.152361,0.010262,14
-1.69191,-0.453347,0.0917973,28
-1.66477,-0.445763,0.150779,24
-0.981873,-0.262541,0.124794,47
-0.992427,-0.264992,0.162692,41
-0.504337,-0.134665,-0.0456696,12
-0.990176,-0.264206,0.199205,56
-0.536494,-0.143051,-0.0290988,100
-0.647766,-0.172599,0.154766,100
-0.575846,-0.153328,-0.0104016,10
-0.588072,-0.156474,0.163056,100
-0.579952,-0.153447,0.0104714,13
-1.66259,-0.439275,0.0901225,26
-1.65668,-0.437406,0.149908,22
-0.982783,-0.259112,0.124794,48
-0.985705,-0.259514,0.16144,43
-0.512534,-0.134843,-0.0463669,12
-0.977802,-0.257251,0.196533,53
-0.54858,-0.144224,-0.0297268,15
-0.661558,-0.173803,0.157916,39
-0.576377,-0.151317,-0.0104016,10
-0.592352,-0.155401,0.164091,100
-0.611443,-0.159497,0.0110299,12
-1.63125,-0.42491,0.0883431,34
-1.61971,-0.4213,0.146422,28
-0.989446,-0.257178,0.125525,53
-0.977044,-0.253591,0.159876,45
-0.497573,-0.129052,-0.0449724,12
-0.992041,-0.257113,0.199205,60
-0.545238,-0.141211,-0.0295175,15
-0.647098,-0.167472,0.154316,31
-0.586582,-0.15181,-0.0105762,12
-0.572317,-0.148011,0.158397,100
-0.670127,-0.172184,0.0120771,65
-1.56695,-0.402326,0.0847843,48
-1.54783,-0.39684,0.139798,64
-0.992305,-0.254042,0.125769,47
-0.974096,-0.2492,0.15925,48
-0.498021,-0.127314,-0.0449724,12
-0.9644,-0.24636,0.19348,55
-0.553468,-0.141283,-0.0299362,100
-0.662755,-0.169181,0.157916,31
-0.573544,-0.146301,-0.0103318,12
-0.578446,-0.147444,0.15995,100
-1.10296,-0.279502,0.0198608,9
-1.5586,-0.394676,0.0842609,60
-1.55107,-0.392194,0.139972,65
-0.993142,-0.25075,0.125769,48
-0.988325,-0.249351,0.16144,46
-0.506168,-0.12761,-0.0456696,12
-0.976635,-0.246039,0.19577,57
-0.551997,-0.138959,-0.0298315,16
-0.663313,-0.166982,0.157916,100
-0.587601,-0.147813,-0.0105762,12
-0.578932,-0.145525,0.15995,100
-0.783777,-0.195853,0.0141015,43
-1.54253,-0.384881,0.0833189,63
-1.55237,-0.387048,0.139972,65
-0.993968,-0.247456,0.125769,48
-0.987272,-0.245423,0.161128,47
-0.510477,-0.126803,-0.0460182,12
-0.958433,-0.237898,0.191954,53
-0.544724,-0.135108,-0.0294128,15
-0.673349,-0.167011,0.160165,100
-0.578409,-0.143356,-0.0104016,10
-0.583187,-0.144432,0.160985,100
-0.69905,-0.171962,0.0125657,60
-1.53811,-0.377796,0.0830048,65
-1.55571,-0.381831,0.140146,63
-0.998724,-0.244756,0.126257,48
-0.976652,-0.238985,0.15925,48
-0.51481,-0.125878,-0.0463669,12
-0.984092,-0.240442,0.196915,56
-0.558798,-0.136427,-0.0301455,16
-0.662597,-0.161769,0.157466,100
-0.580873,-0.141709,-0.0104365,12
-0.59122,-0.144124,0.163056,100
-0.649144,-0.157164,0.0116582,69
-1.54524,-0.373833,0.0833189,63
-1.54548,-0.373319,0.139101,63
-1.00154,-0.241559,0.1265,37
-0.971719,-0.234186,0.158312,51
-0.503624,-0.121281,-0.045321,13
-0.971564,-0.23379,0.194244,52
-0.561212,-0.134942,-0.0302502,16
-0.655607,-0.157518,0.155666,100
-0.577476,-0.138746,-0.0103667,12
-0.582327,-0.139804,0.160468,21
-0.610759,-0.145729,0.0109601,77
-1.53682,-0.366123,0.0827955,60
-1.53514,-0.365156,0.138055,61
-0.996546,-0.23686,0.125769,35
-0.962921,-0.228512,0.156747,49
-0.49629,-0.117684,-0.0446237,12
-0.974244,-0.23102,0.194625,56
-0.565544,-0.134002,-0.0304595,16
-0.650436,-0.153997,0.154316,81
-0.58574,-0.138571,-0.0105063,12
-0.577171,-0.136438,0.158915,22
-0.607371,-0.142681,0.0108903,91
-1.54587,-0.36258,0.0832142,60
-1.53052,-0.3587,0.137532,57
-0.987702,-0.231118,0.12455,32
-0.979101,-0.228745,0.15925,48
-0.516078,-0.12057,-0.0463669,12
-0.952102,-0.222262,0.190046,57
-0.554338,-0.129305,-0.0298315,19
-0.652868,-0.152167,0.154766,73
-0.590116,-0.137433,-0.0105762,12
-0.579526,-0.13486,0.159433,21
-0.605917,-0.14011,0.0108554,100
-1.53156,-0.353588,0.0823768,65
-1.53953,-0.355146,0.138229,52
-0.974962,-0.22455,0.122844,39
-0.972193,-0.223555,0.157999,49
-0.512613,-0.117875,-0.0460182,12
-0.943305,-0.216739,0.188138,66
-0.539213,-0.123793,-0.0289941,16
-0.641999,-0.147273,0.152067,75
-0.596439,-0.136712,-0.0106809,13
-0.579993,-0.132836,0.159433,21
-0.612252,-0.139325,0.0109601,100
-1.51325,-0.344079,0.0813301,38
-1.52911,-0.347124,0.137183,19
-0.97574,-0.221145,0.122844,42
-0.967149,-0.219021,0.15706,46
-0.503305,-0.113886,-0.0451467,12
-0.934481,-0.21128,0.18623,52
-0.549383,-0.124111,-0.0295175,15
-0.640608,-0.144602,0.151617,75
-0.579334,-0.130771,-0.0103667,12
-0.586084,-0.132187,0.160985,22
-0.612711,-0.137294,0.0109601,100
-0.734804,-0.164383,0.0394613,35
-0.960574,-0.214538,0.0861099,8
-0.986155,-0.22007,0.124063,43
-0.958267,-0.213496,0.155496,59
-0.509534,-0.113428,-0.0456696,12
-0.891101,-0.198368,0.177452,61
-0.55369,-0.123156,-0.0297268,16
-0.641084,-0.142477,0.151617,75
-0.568074,-0.126147,-0.0101573,14
-0.567682,-0.125956,0.155809,20
-0.605375,-0.133433,0.0108205,100
-0.786089,-0.172977,0.0421828,14
-0.965172,-0.212207,0.0864585,19
-0.984978,-0.216201,0.123819,42
-0.953218,-0.208881,0.154557,60
-0.500195,-0.109518,-0.0447981,12
-0.755622,-0.165443,0.150357,58
-0.561921,-0.12293,-0.0301455,16
-0.643481,-0.140655,0.152067,92
-0.578279,-0.126297,-0.0103318,13
-0.58133,-0.126857,0.159433,22
-0.594111,-0.128777,0.0106111,100
-0.899908,-0.194732,0.0482538,23
-0.956206,-0.206564,0.0855869,32
-0.966323,-0.208574,0.121382,45
-0.948148,-0.204304,0.153619,60
-0.508365,-0.109448,-0.0454953,12
-0.623789,-0.134184,0.124026,78
-0.552605,-0.118771,-0.0296222,20
-0.638276,-0.137068,0.150717,100
-0.582626,-0.125117,-0.0104016,13
-0.587436,-0.126043,0.160985,22
-0.602402,-0.128264,0.0107507,100
-0.873233,-0.185771,0.0467883,34
-0.953023,-0.202398,0.0852383,31
-0.947661,-0.200913,0.118944,65
-0.917936,-0.194444,0.148613,57
-0.522389,-0.110561,-0.0467155,12
-0.635778,-0.134443,0.126316,97
-0.556924,-0.117667,-0.0298315,19
-0.636821,-0.134548,0.150267,100
-0.586973,-0.123909,-0.0104714,13
-0.576531,-0.121599,0.15788,100
-0.612611,-0.128316,0.0109252,100
-0.821062,-0.171828,0.0439622,42
-0.928336,-0.19394,0.0829723,57
-0.946379,-0.197364,0.118701,50
-0.79481,-0.16561,0.128589,48
-0.516901,-0.10761,-0.0461925,12
-0.640064,-0.133134,0.127079,100
-0.555356,-0.115413,-0.0297268,21
-0.627724,-0.130453,0.148018,100
-0.583465,-0.121148,-0.0104016,13
-0.59963,-0.124396,0.164091,22
-0.620867,-0.127898,0.0110648,100
-0.704252,-0.144947,0.0376819,46
-0.899699,-0.184845,0.0803576,45
-0.912025,-0.187046,0.114313,50
-0.654087,-0.134027,0.10575,69
-0.493832,-0.1011,-0.0441008,12
-0.638579,-0.130617,0.126697,100
-0.563563,-0.11517,-0.0301455,20
-0.630062,-0.12876,0.148468,100
-0.579945,-0.118413,-0.0103318,13
-0.590575,-0.120476,0.161503,22
-0.603649,-0.122265,0.0107507,100
-0.657747,-0.133103,0.0351698,52
-0.806566,-0.162925,0.0719906,58
-0.799777,-0.161263,0.100177,66
-0.650655,-0.131077,0.105124,90
-0.50979,-0.102607,-0.0454953,12
-0.640933,-0.128886,0.127079,100
-0.567858,-0.114088,-0.0303549,20
-0.638128,-0.128206,0.150267,100
-0.588176,-0.118063,-0.0104714,13
-0.589077,-0.118137,0.160985,22
-0.604114,-0.119947,0.0107507,100
-0.650417,-0.129022,0.0347511,62
-0.709463,-0.140478,0.0632751,85
-0.664071,-0.131249,0.0831149,95
-0.651153,-0.128578,0.105124,100
-0.516045,-0.101805,-0.0460182,10
-0.62794,-0.123766,0.124407,18
-0.558494,-0.109977,-0.0298315,19
-0.636725,-0.125267,0.149817,100
-0.576853,-0.113488,-0.010262,13
-0.583839,-0.114756,0.159433,21
-0.608433,-0.118708,0.0108205,100
-0.641061,-0.124842,0.0342277,70
-0.67279,-0.130777,0.0599631,95
-0.646964,-0.12564,0.0809212,100
-0.649659,-0.125928,0.104811,100
-0.524221,-0.101519,-0.0467155,10
-0.630275,-0.122056,0.124789,19
-0.549051,-0.106227,-0.0293081,18
-0.629484,-0.121675,0.148018,100
-0.592953,-0.114507,-0.0105413,13
-0.601308,-0.116011,0.164091,100
-0.608844,-0.116584,0.0108205,100
-0.633646,-0.121104,0.033809,80
-0.677134,-0.129293,0.0603118,100
-0.653249,-0.124496,0.0816525,100
-0.642332,-0.122183,0.10356,100
-0.520657,-0.0989442,-0.0463669,10
-0.630697,-0.119856,0.124789,21
-0.557267,-0.1058,-0.0297268,15
-0.629905,-0.119477,0.148018,100
-0.597278,-0.113181,-0.0106111,13
-0.599811,-0.113552,0.163574,100
-0.615143,-0.115565,0.0109252,100
-0.636028,-0.119259,0.0339137,80
-0.671728,-0.125711,0.0597888,100
-0.651728,-0.12185,0.0814087,100
-0.642755,-0.11994,0.10356,100
-0.521,-0.097126,-0.0463669,10
-0.640782,-0.11934,0.126697,22
-0.569432,-0.105949,-0.0303549,15
-0.628422,-0.116812,0.147568,100
-0.581942,-0.108172,-0.0103318,13
-0.588808,-0.109342,0.160468,100
-0.60573,-0.1115,0.0107507,100
-0.648247,-0.119093,0.0345417,77
-0.664324,-0.121926,0.0590916,100
-0.654123,-0.119818,0.0816525,100
-0.64319,-0.117583,0.10356,20
-0.505656,-0.0924404,-0.0449724,10
-0.637332,-0.116398,0.125934,24
-0.569799,-0.103961,-0.0303549,100
-0.634578,-0.115666,0.148918,100
-0.594138,-0.108188,-0.0105413,13
-0.583503,-0.106146,0.158915,100
-0.615955,-0.111161,0.0109252,100
-0.648659,-0.116829,0.0345417,85
-0.664745,-0.119607,0.0590916,100
-0.648675,-0.116481,0.0809212,100
-0.645541,-0.115686,0.103873,23
-0.509898,-0.0913777,-0.045321,10
-0.635802,-0.113826,0.125552,23
-0.566226,-0.101268,-0.0301455,15
-0.640733,-0.114478,0.150267,100
-0.594512,-0.106113,-0.0105413,13
-0.580066,-0.10343,0.15788,100
-0.61437,-0.108662,0.0108903,100
-0.649042,-0.114677,0.0345417,85
-0.678894,-0.119707,0.0603118,26
-0.639303,-0.112496,0.0797026,19
-0.649812,-0.114229,0.104498,23
-0.504327,-0.0885635,-0.0447981,9
-0.634262,-0.111267,0.125171,24
-0.568543,-0.0996357,-0.0302502,100
-0.631531,-0.110561,0.148018,100
-0.610619,-0.1069,-0.0108205,13
-0.597532,-0.104501,0.162538,100
-0.620637,-0.107649,0.010995,100
-0.633695,-0.109686,0.0337044,89
-0.675381,-0.116659,0.0599631,27
-0.645541,-0.111388,0.0804338,19
-0.63658,-0.109613,0.102308,24
-0.512487,-0.0881536,-0.0454953,9
-0.648171,-0.111493,0.127842,25
-0.570839,-0.098088,-0.0303549,100
-0.62037,-0.106488,0.145318,100
-0.59325,-0.101726,-0.0105063,12
-0.599798,-0.102741,0.163056,100
-0.619038,-0.105147,0.0109601,100
-0.643901,-0.109254,0.0342277,86
-0.665942,-0.112755,0.0590916,31
-0.653755,-0.110457,0.0814087,21
-0.63694,-0.107502,0.102308,24
-0.516706,-0.0871161,-0.0458439,9
-0.644684,-0.108577,0.127079,23
-0.575117,-0.0967577,-0.0305642,100
-0.624582,-0.104967,0.146218,100
-0.58964,-0.0990952,-0.0104365,12
-0.592514,-0.0994718,0.160985,100
-0.613466,-0.102109,0.0108554,100
-0.648219,-0.107661,0.0344371,86
-0.658469,-0.109127,0.0583943,31
-0.654118,-0.108289,0.0814087,21
-0.647056,-0.106887,0.103873,25
-0.520939,-0.0859606,-0.0461925,100
-0.63923,-0.10548,0.125934,24
-0.581347,-0.0958245,-0.0308782,100
-0.632618,-0.104162,0.148018,100
-0.601821,-0.0989834,-0.010646,12
-0.585233,-0.0961503,0.158915,100
-0.619739,-0.100931,0.0109601,100
-0.652533,-0.106038,0.0346464,100
-0.662761,-0.107581,0.058743,33
-0.644694,-0.104418,0.08019,22
-0.647425,-0.104628,0.103873,22
-0.525169,-0.0847767,-0.0465412,100
-0.631841,-0.101997,0.124407,22
-0.579706,-0.0934766,-0.0307735,100
-0.648369,-0.104432,0.151617,100
-0.598215,-0.0962469,-0.0105762,12
-0.587472,-0.0944133,0.159433,100
-0.622063,-0.0990817,0.010995,100
-0.645009,-0.102506,0.0342277,94
-0.671022,-0.1064,0.0594402,35
-0.645055,-0.102167,0.08019,21
-0.647786,-0.102368,0.103873,23
-0.533334,-0.0841856,-0.0472384,100
-0.630272,-0.0993742,0.124026,21
-0.576099,-0.0907298,-0.0305642,100
-0.631422,-0.0993297,0.147568,100
-0.604473,-0.0950904,-0.0106809,10
-0.604974,-0.095061,0.164091,100
-0.624398,-0.0971082,0.0110299,100
-0.645363,-0.100253,0.0342277,100
-0.66942,-0.103751,0.0592659,31
-0.65131,-0.100712,0.0809212,24
-0.64814,-0.100106,0.103873,22
-0.54347,-0.0838423,-0.04811,100
-0.646137,-0.0995657,0.127079,21
-0.58036,-0.089326,-0.0307735,100
-0.625986,-0.0962367,0.146218,100
-0.590966,-0.0908528,-0.0104365,12
-0.620578,-0.0952945,0.168232,100
-0.634601,-0.096541,0.0112044,100
-0.649659,-0.0985997,0.0344371,100
-0.667808,-0.101116,0.0590916,31
-0.659492,-0.0997388,0.0818962,24
-0.638719,-0.0963691,0.102308,20
-0.539819,-0.081351,-0.0477613,100
-0.644523,-0.0971299,0.126697,20
-0.590528,-0.0888873,-0.0312969,100
-0.639792,-0.0961883,0.149367,100
-0.597212,-0.0896804,-0.0105413,10
-0.607533,-0.0911217,0.164609,100
-0.623066,-0.092562,0.010995,100
-0.65395,-0.0969169,0.0346464,100
-0.656314,-0.0971501,0.0580457,34
-0.665727,-0.0983061,0.0826274,22
-0.650777,-0.0958664,0.104185,100
-0.532202,-0.078399,-0.0470641,100
-0.635146,-0.0934506,0.124789,19
-0.594787,-0.0874062,-0.0315063,100
-0.649764,-0.0953696,0.151617,100
-0.603457,-0.0884652,-0.010646,10
-0.613582,-0.0898401,0.166162,100
-0.627343,-0.0909605,0.0110648,100
-0.656261,-0.0949197,0.0347511,100
-0.664537,-0.0959981,0.058743,30
-0.656242,-0.0945659,0.0814087,21
-0.653063,-0.0938752,0.104498,100
-0.540361,-0.0776747,-0.0477613,100
-0.635469,-0.0912327,0.124789,19
-0.585203,-0.0839122,-0.0309829,100
-0.650093,-0.0931009,0.151617,100
-0.611681,-0.0874907,-0.0107856,10
-0.617717,-0.0882443,0.167197,100
-0.623697,-0.08821,0.010995,100
-0.648678,-0.0915121,0.0343324,100
-0.664868,-0.0936778,0.058743,31
-0.656568,-0.0922747,0.0814087,19
-0.661212,-0.092692,0.10575,100
-0.548521,-0.0768944,-0.0484586,66
-0.637727,-0.0892863,0.125171,18
-0.579559,-0.0810391,-0.0306689,100
-0.640764,-0.0894832,0.149367,100
-0.615943,-0.0859076,-0.0108554,10
-0.627588,-0.0874201,0.169785,100
-0.625982,-0.0863055,0.0110299,100
-0.650972,-0.0895193,0.0344371,100
-0.673087,-0.0924408,0.0594402,30
-0.658853,-0.0902517,0.0816525,16
-0.657617,-0.0898485,0.105124,100
-0.56063,-0.0765975,-0.0495045,64
-0.638035,-0.0870597,0.125171,100
-0.59567,-0.081173,-0.0315063,100
-0.641072,-0.0872462,0.149367,100
-0.604351,-0.0821411,-0.010646,10
-0.624061,-0.0847092,0.16875,100
-0.638171,-0.0857172,0.0112393,100
-0.659199,-0.0883072,0.0348557,100
-0.663531,-0.0887699,0.0585687,27
-0.659164,-0.0879513,0.0816525,100
-0.652052,-0.0867707,0.104185,100
-0.541144,-0.0720119,-0.0477613,67
-0.651958,-0.0866424,0.127842,100
-0.607829,-0.0806699,-0.0321343,100
-0.643305,-0.0852639,0.149817,77
-0.604634,-0.080031,-0.010646,10
-0.612861,-0.0810113,0.165644,93
-0.630535,-0.0824518,0.0110997,100
-0.653561,-0.0852309,0.0345417,100
-0.659886,-0.0859384,0.05822,27
-0.665373,-0.086417,0.0823837,100
-0.650392,-0.0842404,0.103873,100
-0.561151,-0.0726817,-0.0495045,64
-0.648363,-0.0838626,0.127079,100
-0.619991,-0.0800828,-0.0327623,100
-0.651329,-0.084015,0.151617,75
-0.628709,-0.0809857,-0.0110648,10
-0.618889,-0.0796109,0.167197,82
-0.630819,-0.0802503,0.0110997,100
-0.673654,-0.0855802,0.0355885,100
-0.668088,-0.084636,0.0589173,26
-0.651884,-0.0823521,0.0806775,100
-0.664387,-0.0838138,0.106063,100
-0.585123,-0.0737108,-0.0515962,61
-0.642808,-0.0808636,0.125934,100
-0.614322,-0.0771713,-0.0324483,100
-0.651604,-0.0818546,0.151617,67
-0.613101,-0.0769093,-0.0107856,9
-0.619149,-0.0775581,0.167197,82
-0.642989,-0.0796326,0.0113092,100
-0.666005,-0.0823653,0.0351698,100
-0.678252,-0.0836393,0.0597888,100
-0.654124,-0.0804323,0.0809212,100
-0.666622,-0.0818508,0.106375,100
-0.577454,-0.0708002,-0.050899,62
-0.637226,-0.0780159,0.124789,100
-0.622505,-0.0761031,-0.032867,100
-0.649938,-0.0794569,0.151167,59
-0.625262,-0.0763296,-0.010995,9
-0.621321,-0.0757383,0.167715,71
-0.651191,-0.0784569,0.0114488,100
-0.650411,-0.0782478,0.0343324,100
-0.686439,-0.0823388,0.0604861,24
-0.670156,-0.0801486,0.0828712,100
-0.657082,-0.0784686,0.104811,100
-0.609339,-0.0726594,-0.0536879,58
-0.651128,-0.0775271,0.12746,96
-0.61482,-0.0730952,-0.0324483,100
-0.642457,-0.0763809,0.149367,51
-0.629483,-0.0747272,-0.0110648,9
-0.631161,-0.0748146,0.170303,70
-0.661378,-0.07746,0.0116233,94
-0.666537,-0.0779463,0.0351698,100
-0.678792,-0.0791393,0.0597888,100
-0.664502,-0.0772382,0.0821399,100
-0.64949,-0.0753784,0.10356,100
-0.609577,-0.0706383,-0.0536879,58
-0.649431,-0.0751418,0.127079,86
-0.638868,-0.0738065,-0.0337044,100
-0.642707,-0.07425,0.149367,25
-0.613836,-0.0708062,-0.0107856,9
-0.617971,-0.0711739,0.166679,41
-0.649749,-0.0735701,0.0114139,100
-0.676768,-0.0763902,0.0356931,100
-0.675131,-0.0760861,0.0594402,100
-0.67663,-0.0760159,0.0836024,100
-0.653714,-0.0732103,0.104185,91
-0.599943,-0.0671885,-0.0528164,88
-0.638008,-0.0713387,0.124789,77
-0.651057,-0.0726826,-0.0343324,100
-0.652684,-0.0727488,0.151617,16
-0.633989,-0.0705532,-0.0111346,9
-0.614412,-0.0682658,0.165644,31
-0.653977,-0.0717378,0.0114837,96
-0.681001,-0.0744615,0.0359025,100
-0.679354,-0.0741615,0.0597888,100
-0.661104,-0.0719356,0.0816525,100
-0.657893,-0.0713539,0.104811,80
-0.61404,-0.0665977,-0.0540366,57
-0.618735,-0.0669977,0.120973,69
-0.645349,-0.0697654,-0.0340184,100
-0.641309,-0.0692155,0.148918,8
-0.652125,-0.0702678,-0.0114488,100
-0.630012,-0.0677737,0.169785,20
-0.666155,-0.070721,0.0116931,93
-0.675286,-0.0715713,0.0355885,100
-0.685552,-0.0724174,0.0603118,100
-0.655428,-0.0690041,0.0809212,100
-0.671878,-0.0706172,0.107001,77
-0.602379,-0.0632064,-0.0529907,59
-0.648254,-0.0679056,0.126697,32
-0.649562,-0.0679279,-0.0342277,100
-0.649287,-0.0678992,0.150717,8
-0.66031,-0.0689354,-0.0115884,100
-0.643684,-0.0670859,0.173409,9
-0.664396,-0.0683072,0.0116582,81
-0.673533,-0.0691276,0.0354838,100
-0.693717,-0.0709545,0.061009,100
-0.659603,-0.0672328,0.0814087,99
-0.664248,-0.0675889,0.10575,69
-0.614479,-0.0624165,-0.0540366,57
-0.636756,-0.0645672,0.124407,11
-0.663693,-0.0671815,-0.0349604,97
-0.769717,-0.0779135,0.178611,78
-0.656556,-0.0663433,-0.0115186,100
-0.678501,-0.0684412,0.182726,8
-0.680538,-0.0676869,0.0119374,77
-0.685695,-0.0679581,0.0361118,100
-0.678087,-0.0670846,0.0596145,100
-0.677602,-0.0667978,0.0836024,82
-0.648752,-0.063725,0.103247,30
-0.606762,-0.0594936,-0.0533393,58
-0.693641,-0.0678899,0.135474,66
-0.673863,-0.0658353,-0.0354838,94
-1.42554,-0.139273,0.330678,27
-0.652803,-0.0636628,-0.0114488,100
-0.774873,-0.0754309,0.208608,6
-0.680782,-0.0651921,0.0119374,77
-0.683951,-0.0652546,0.0360071,100
-0.678328,-0.0645988,0.0596145,100
-0.665985,-0.0631886,0.0821399,48
-0.662748,-0.0626482,0.105437,9
-0.606975,-0.0572692,-0.0533393,58
-1.41513,-0.133271,0.276291,10
-0.684042,-0.0642998,-0.0360071,100
-1.41634,-0.133135,0.328429,19
-0.66896,-0.0627641,-0.011728,100
-0.677033,-0.0623299,0.0118676,78
-0.682197,-0.0625651,0.0359025,87
-0.686497,-0.0628386,0.0603118,94
-0.662259,-0.0603869,0.0816525,36
-0.690515,-0.0627202,0.109817,27
-0.634951,-0.0576733,-0.0557797,54
-1.36671,-0.1239,0.266751,11
-0.680284,-0.0615515,-0.0357978,100
-1.38382,-0.124963,0.32078,13
-0.657236,-0.059235,-0.0115186,100
-1.75476,-0.157843,0.472086,45
-0.677247,-0.0599662,0.0118676,78
-0.684401,-0.0603589,0.0360071,72
-0.682743,-0.0600924,0.0599631,74
-0.654555,-0.0573814,0.0806775,12
-0.749766,-0.0654643,0.119203,7
-0.658966,-0.0575363,-0.0578714,51
-1.36909,-0.119299,0.267133,16
-0.678505,-0.0590035,-0.0356931,94
-1.37066,-0.118953,0.317631,9
-0.681345,-0.0590108,-0.0119374,100
-1.76493,-0.152549,0.474674,43
-0.689407,-0.0586183,0.0120771,65
-0.680627,-0.0576323,0.0357978,65
-0.692875,-0.0585477,0.0608347,41
-0.66662,-0.0560947,0.0821399,24
-1.37006,-0.114807,0.217757,3
-0.619455,-0.0519082,-0.0543852,56
-1.36363,-0.114028,0.265988,6
-0.682687,-0.056967,-0.0359025,100
-1.38854,-0.115623,0.32168,4
-0.677561,-0.056301,-0.0118676,100
-1.77315,-0.147026,0.476745,41
-0.693594,-0.0565363,0.0121469,64
-0.676843,-0.0549331,0.0355885,66
-0.675202,-0.0546813,0.0592659,21
-0.747937,-0.060309,0.0921332,19
-1.39211,-0.111762,0.221198,4
-0.65538,-0.0526154,-0.0575228,51
-1.36989,-0.109738,0.267133,2
-0.694827,-0.0555384,-0.0365305,90
-1.39865,-0.11155,0.32393,11
-0.673767,-0.0536184,-0.0117978,100
-1.76402,-0.140071,0.474157,37
-0.701761,-0.054737,0.0122865,63
-0.67503,-0.0525333,0.0354838,44
-0.659497,-0.0510931,0.0578714,11
-1.39931,-0.107916,0.172323,4
-1.39051,-0.106994,0.220885,7
-0.635694,-0.0488024,-0.0557797,54
-1.3546,-0.103756,0.26408,3
-0.693026,-0.0529605,-0.0364258,91
-1.39709,-0.106519,0.32348,12
-0.685905,-0.0522959,-0.0120073,95
-1.76448,-0.134221,0.474157,14
-0.693962,-0.051814,0.0121469,32
-0.669234,-0.0497326,0.0351698,15
-1.31338,-0.0971405,0.11522,2
-1.39372,-0.102837,0.171592,5
-1.4086,-0.103441,0.223701,9
-0.679576,-0.0497857,-0.0596145,24
-1.36669,-0.100124,0.266369,3
-0.683238,-0.0499341,-0.0359025,83
-1.41493,-0.103161,0.327529,12
-0.682094,-0.0496112,-0.0119374,96
-1.79769,-0.130437,0.482956,6
-0.714086,-0.0508106,0.0124959,30
-0.665419,-0.0471141,0.0349604,7
-1.37928,-0.0974168,0.120972,2
-1.39011,-0.0976933,0.171105,11
-1.40501,-0.0982481,0.223076,12
-0.659862,-0.046142,-0.0578714,25
-1.38662,-0.0967184,0.270186,3
-0.683408,-0.047549,-0.0359025,83
-1.4075,-0.0976817,0.325729,12
-0.696227,-0.0481966,-0.0121818,61
-1.84054,-0.127089,0.494344,3
-0.73022,-0.0493974,0.0127752,19
-0.693478,-0.0466687,0.0364258,7
-1.42335,-0.0955367,0.124807,10
-1.3845,-0.0924439,0.170373,26
-1.39549,-0.0926884,0.221511,34
-0.660019,-0.0438384,-0.0578714,25
-1.36735,-0.0905802,0.266369,3
-0.679584,-0.0448996,-0.0356931,73
-1.41367,-0.0931523,0.327079,12
-0.698387,-0.0458973,-0.0122167,61
-1.98362,-0.130013,0.53265,4
-0.734379,-0.0471039,0.012845,19
-1.33543,-0.0854227,0.0701302,1
-1.40975,-0.0896822,0.123587,32
-1.40066,-0.0886132,0.172323,34
-1.39973,-0.088309,0.222137,54
-0.660168,-0.0415344,-0.0578714,25
-1.37158,-0.0860522,0.267133,6
-0.689703,-0.0431507,-0.0362165,50
-1.41399,-0.0882174,0.327079,12
-0.690552,-0.043083,-0.0120771,62
-2.2077,-0.137349,0.592696,10
-0.712575,-0.0433335,0.012461,20
-1.40351,-0.0848589,0.073689,1
-1.40011,-0.0841633,0.122715,23
-1.41878,-0.0850368,0.174517,24
-1.40989,-0.0840103,0.223701,30
-0.688153,-0.0408839,-0.0603118,23
-1.37774,-0.081853,0.268277,6
-0.689842,-0.0408633,-0.0362165,20
-1.41427,-0.0835279,0.327079,13
-0.688702,-0.0405547,-0.0120422,63
-0.678783,-0.0389007,0.0118676,11
-2.38884,-0.136067,0.125397,1
-1.40436,-0.0797457,0.123064,6
-1.427,-0.0805311,0.175492,4
-1.40426,-0.0787564,0.222763,12
-0.672378,-0.0375917,-0.0589173,24
-1.39566,-0.0780292,0.271712,2
-0.678016,-0.0377884,-0.0355885,10
-1.39704,-0.0776177,0.32303,17
-0.694829,-0.038482,-0.0121469,62
-2.27805,-0.125768,0.611331,55
-2.34824,-0.126354,0.0410481,1
-2.30355,-0.123143,0.120896,3
-1.45041,-0.0770281,0.127073,1
-1.39861,-0.0735429,0.221824,3
-0.652608,-0.0342018,-0.0571742,26
-1.40182,-0.0732209,0.272857,7
-0.67815,-0.035303,-0.0355885,10
-0.72092,-0.0374034,-0.0126006,28
-2.2997,-0.118912,0.617025,67
-2.30475,-0.115545,0.0402802,3
-2.29201,-0.114103,0.120268,9
-2.31629,-0.114907,0.202899,13
-2.28604,-0.112606,0.281031,19
-1.42649,-0.0697672,0.226204,1
-0.772124,-0.0377632,-0.0676329,17
-1.39618,-0.0680404,0.271712,12
-0.730137,-0.0354542,-0.0383099,9
-2.36489,-0.114008,-0.0413273,2
-2.29626,-0.110297,0.615989,63
-2.31313,-0.107871,0.0404198,9
-2.2924,-0.106102,0.120268,29
-2.31071,-0.106545,0.202376,50
-2.29633,-0.10508,0.282249,44
-1.42673,-0.0647874,0.226204,1
-1.4121,-0.0638762,0.274765,10
-2.33043,-0.105009,-0.122257,1
-2.27773,-0.102236,0.526385,52
-2.36128,-0.105573,-0.0412575,4
-2.28312,-0.10168,0.612366,59
-2.29352,-0.0989338,0.0400707,28
-2.29473,-0.0985855,0.120373,67
-2.29912,-0.0979697,0.20133,79
-2.29867,-0.0971466,0.282493,65
-1.43088,-0.0602219,0.22683,1
-2.36488,-0.0991185,-0.207082,1
-1.41231,-0.0589466,0.274765,6
-2.29886,-0.0955469,-0.120582,1
-2.2956,-0.0950107,0.530435,54
-2.37361,-0.0982393,-0.0414669,10
-2.27186,-0.0936305,0.60926,56
-2.28984,-0.0911685,0.0400009,60
-2.30504,-0.0909686,0.120896,88
-2.30343,-0.0900999,0.201678,74
-2.28113,-0.0888287,0.2803,69
-1.42714,-0.0550748,0.226204,1
-2.3453,-0.0900975,-0.205339,1
-1.4125,-0.0542628,0.274765,5
-2.29517,-0.0877704,-0.120373,4
-2.29785,-0.0874717,0.530885,55
-2.37993,-0.0901797,-0.0415716,28
-2.27797,-0.085918,0.610813,58
-2.28814,-0.0831029,0.039966,82
-2.28537,-0.0826028,0.119849,83
-2.3077,-0.0826034,0.202027,76
-2.27746,-0.0807243,0.279812,64
-1.48259,-0.0522915,0.234965,1
-2.31771,-0.0813418,-0.202899,1
-2.26029,-0.078931,0.439624,28
-2.28548,-0.0794119,-0.119849,6
-2.2923,-0.0792482,0.529535,54
-2.37422,-0.0820803,-0.0414669,25
-2.28017,-0.0784299,0.611331,55
-2.3004,-0.0759103,0.0401754,80
-2.28165,-0.0744944,0.11964,81
-2.30598,-0.0744831,0.201853,81
-2.28565,-0.0734269,0.280787,69
-2.314,-0.0731245,-0.20255,1
-2.13299,-0.0674045,0.414819,7
-2.29172,-0.0720206,-0.120163,4
-2.28086,-0.0712809,0.526835,59
-2.39048,-0.0742885,-0.0417462,20
-2.29201,-0.0708281,0.614436,61
-2.30466,-0.0675956,0.0402452,78
-2.2899,-0.0663626,0.120059,86
-2.30623,-0.0664332,0.201853,78
-2.29384,-0.0652749,0.281762,69
-2.28461,-0.0642142,0.361989,61
-2.32619,-0.065383,-0.203596,1
-2.10379,-0.0587644,0.409095,2
-2.29397,-0.063676,-0.120268,3
-2.29085,-0.0631887,0.529085,61
-2.38674,-0.0654174,-0.0416763,14
-2.28453,-0.0622165,0.612366,59
-2.29289,-0.059241,0.0400358,68
-2.29011,-0.0583689,0.120059,83
-2.29848,-0.0581808,0.201155,78
-2.29008,-0.0571684,0.281274,66
-2.29667,-0.0565307,0.363867,61
-2.31446,-0.0569685,-0.20255,1
-2.05491,-0.0502212,0.399554,1
-2.31215,-0.0561036,-0.12121,1
-2.27547,-0.0548168,0.525486,51
-2.38695,-0.0570857,-0.0416763,9
-2.27701,-0.0540582,0.610295,56
-2.27908,-0.0509237,0.0397915,16
-2.29628,-0.050907,0.120373,89
-2.29668,-0.0501138,0.200981,76
-2.29027,-0.0491747,0.281274,67
-2.28894,-0.048746,0.362615,61
-2.34253,-0.0494781,-0.20499,1
-2.03349,-0.0425951,0.395356,1
-2.39619,-0.0497749,-0.125606,1
-2.29513,-0.0472748,0.529985,57
-2.37713,-0.048964,-0.0415018,4
-2.27718,-0.046507,0.610295,57
-0.693769,-0.0132,0.012112,97
-2.28846,-0.0427425,0.119954,83
-2.30481,-0.0422425,0.201678,76
-2.27851,-0.0413633,0.279812,62
-2.3049,-0.0410371,0.365118,58
-2.33472,-0.0411609,-0.204293,1
-2.02576,-0.0357141,0.39383,1
-2.28748,-0.0395289,0.528185,55
-2.3553,-0.0402896,-0.0411179,2
-2.28505,-0.0386891,0.612366,55
-0.689812,-0.010716,0.0120422,30
-2.2826,-0.034663,0.11964,76
-2.3129,-0.0347188,0.202376,70
-2.2846,-0.0334968,0.280543,56
-2.28923,-0.0327655,0.362615,49
-2.36672,-0.0338746,-0.207082,1
-2.0298,-0.0286976,0.394593,1
-2.2876,-0.0315438,0.528185,55
-2.22346,-0.0302711,-0.0388142,1
-2.2929,-0.0308164,0.614436,59
-0.701842,-0.00845263,0.0122516,58
-2.2907,-0.0267878,0.120059,65
-2.31102,-0.0266226,0.202201,64
-2.28867,-0.0255656,0.281031,53
-2.2676,-0.0245392,0.359174,22
-2.00633,-0.0213612,0.390014,1
-2.28965,-0.0235789,0.528635,53
-0.607876,-0.0061537,-0.0106111,39
-2.27561,-0.0226394,0.609778,52
-0.68787,-0.00588296,0.0120073,58
-2.29677,-0.0188412,0.120373,47
-2.29117,-0.0183955,0.200458,45
-2.29271,-0.017607,0.281518,39
-1.70866,-0.0125252,0.270632,8
-1.99069,-0.0142452,0.386961,1
-0.798884,-0.00557752,-0.0418688,7
-2.28972,-0.0155858,0.528635,49
-0.659885,-0.00437658,-0.0115186,34
-2.27761,-0.0147089,0.610295,50
-0.693885,-0.00351216,0.012112,77
-2.29682,-0.0108238,0.120373,7
-2.31115,-0.0100841,0.202201,13
-2.29078,-0.00959595,0.281274,17
-1.6514,-0.00634083,0.261558,10
-2.04177,-0.00712704,0.396883,1
-0.798899,-0.00264922,-0.0418688,7
-2.28391,-0.0071756,0.527285,38
-0.671894,-0.00211096,-0.011728,33
-2.28344,-0.00677506,0.611848,45
-0.693894,-0.000968905,0.012112,88
-2.30683,-0.00281851,0.120896,1
-2.31516,-0.00202058,0.20255,2
-2.28484,-0.00119607,0.280543,7
-1.61191,-0.000562871,0.255301,9
-0.679068,0.00011841,-0.0355885,10
-2.27613,0.000794127,0.525486,19
-0.675897,0.000235816,-0.0117978,33
-2.27765,0.0011927,0.610295,11
-0.695893,0.001336,0.0121469,109
-0.717014,0.00162665,0.0375772,6
-2.30917,0.00604525,0.202027,2
-2.29674,0.006413,0.282006,6
-1.61783,0.0050824,0.25624,6
-0.738981,0.00257945,-0.0387286,8
-2.26052,0.00828499,0.521886,5
-0.669893,0.00257228,-0.0116931,67
-2.24286,0.00900313,0.600978,1
-0.707882,0.00383005,0.0123563,130
-0.736977,0.00411592,0.0386239,6
-2.30316,0.0136673,0.201504,4
-2.27686,0.014306,0.279568,6
-1.63755,0.0105749,0.259368,1
-0.730979,0.00510321,-0.0383099,9
-2.27802,0.0163012,0.525936,1
-0.665882,0.00476496,-0.0116233,67
-1.65942,0.0121642,0.444651,1
-0.689869,0.00602042,0.0120422,77
-0.697015,0.00632592,0.0365305,7
-2.27322,0.0214252,0.198889,2
-2.28077,0.0218944,0.280056,6
-1.74022,0.0173129,0.275638,1
-0.722969,0.00744496,-0.0378912,9
-2.32862,0.024386,0.537633,1
-0.703853,0.0074938,-0.0122865,60
-1.65164,0.017873,0.442581,1
-0.681845,0.00833077,0.0119025,95
-0.732936,0.00921087,0.0384146,6
-2.2293,0.0284049,0.195055,1
-2.29457,0.0300376,0.281762,1
-0.698974,0.00963812,-0.0366352,10
-0.693825,0.00980934,-0.012112,62
-0.695808,0.0109305,0.0121469,132
-0.714927,0.0114806,0.0374725,6
-2.33415,0.0387053,0.286637,1
-0.706924,0.0122158,-0.0370539,9
-0.695786,0.0122664,-0.0121469,62
-0.71176,0.0136664,0.0124261,142
-0.670951,0.0131171,0.0351698,7
-1.46811,0.0289578,0.128468,1
-2.334,0.0468522,0.286637,1
-0.772886,0.0157848,-0.0676329,17
-0.69889,0.0145176,-0.0366352,10
-0.689741,0.0145683,-0.0120422,94
-0.70771,0.0160603,0.0123563,150
-0.680885,0.0156892,0.0356931,7
-1.48791,0.0345451,0.130211,2
-2.33382,0.0549992,0.286637,1
-0.694842,0.0168603,-0.0364258,10
-0.701681,0.0172711,-0.0122516,91
-0.693657,0.018164,0.012112,158
-0.664853,0.017642,0.0348557,7
-1.49376,0.039898,0.130734,5
-0.772757,0.02118,-0.0676329,17
-1.56608,0.0431977,0.304531,1
-0.706757,0.019618,-0.0370539,9
-1.57202,0.0439102,0.363071,1
-0.705614,0.0198329,-0.0123214,90
-1.55066,0.0438552,0.415663,1
-0.669603,0.0198733,0.0116931,154
-0.744642,0.0223606,0.0390426,6
-1.50556,0.0454729,0.131779,9
-1.53971,0.0470424,0.189141,1
-1.60127,0.0494824,0.253737,1
-1.50313,0.0467123,0.292319,1
-0.690714,0.0215858,-0.0362165,10
-1.54654,0.048602,0.357222,2
-0.697546,0.022043,-0.0121818,61
-1.55822,0.0495132,0.417734,1
-0.703506,0.0233377,0.0122865,137
-1.51933,0.0511978,0.133,13
-1.51176,0.0514711,0.185729,1
-1.59714,0.0549358,0.253111,1
-1.51473,0.0523659,0.294609,3
-0.686643,0.023858,-0.0360071,10
-1.53078,0.0534557,0.353623,3
-0.697464,0.0244778,-0.0121818,61
-1.5368,0.0542031,0.41204,2
-1.52686,0.056521,0.080074,19
-1.52113,0.0565746,0.133174,27
-1.50761,0.0565989,0.185241,1
-1.56535,0.0593138,0.248105,2
-1.52827,0.0581758,0.29728,7
-0.686555,0.0262547,-0.0360071,10
-1.53837,0.0590981,0.355423,10
-0.697375,0.0269123,-0.0121818,61
-1.5366,0.0595676,0.41204,5
-1.51867,0.0615267,0.0796553,31
-1.505,0.0612364,0.131779,24
-1.5193,0.0623491,0.186704,2
-1.57698,0.0652677,0.249982,3
-1.53002,0.0635913,0.297662,13
-0.694442,0.0289843,-0.0364258,10
-1.54789,0.0648757,0.357672,15
-0.66531,0.0280009,-0.0116233,67
-1.53059,0.0646859,0.410487,11
-1.70811,0.0745779,0.0298436,100
-1.50647,0.0663006,0.0790273,20
-1.50279,0.0664016,0.131605,24
-1.52701,0.0680058,0.187679,2
-1.60831,0.0721889,0.254988,6
-1.52979,0.0689321,0.297662,25
-0.690346,0.0312277,-0.0362165,10
-1.54376,0.0701013,0.356772,25
-0.653222,0.0297769,-0.0114139,70
-1.54001,0.0704699,0.413075,20
-1.70784,0.0805395,0.0298436,100
-1.52818,0.0726017,0.0801787,33
-1.5125,0.072121,0.132477,28
-1.53271,0.0736214,0.18841,5
-1.67119,0.0808573,0.265,8
-1.51973,0.0737956,0.295754,29
-0.698212,0.034026,-0.0366352,10
-1.55324,0.075966,0.359022,32
-0.681076,0.0334293,-0.0119025,64
-1.53782,0.0757501,0.412558,33
-1.49999,0.0765109,0.0787133,25
-1.51224,0.0774003,0.132477,40
-1.50271,0.0774383,0.184754,5
-1.67287,0.0867932,0.265313,8
-1.53907,0.0801203,0.29957,36
-0.686122,0.0358379,-0.0360071,10
-1.51793,0.0795516,0.350924,38
-0.678958,0.0357015,-0.0118676,65
-1.5279,0.0806084,0.409969,35
-1.56147,0.0845663,0.0272956,16
-1.51568,0.0823516,0.0795507,28
-1.51594,0.0828961,0.132825,50
-1.52423,0.0838832,0.187435,5
-1.62524,0.0897264,0.257804,8
-1.52506,0.0847299,0.296899,31
-0.697958,0.0388997,-0.0366352,10
-1.52738,0.0853937,0.353173,41
-0.67085,0.0375064,-0.011728,66
-1.52763,0.0856747,0.409969,31
-1.54521,0.0888258,0.0270163,25
-1.52735,0.0883337,0.0801787,28
-1.50569,0.0876086,0.131954,54
-1.51998,0.088706,0.186948,6
-1.61505,0.0948206,0.25624,8
-1.53457,0.0903638,0.298807,34
-0.68985,0.0407429,-0.0362165,10
-1.53097,0.0906887,0.354073,37
-0.702654,0.0417452,-0.0122865,30
-1.54467,0.0920408,0.414628,35
-1.52693,0.0931232,0.0267022,48
-1.52904,0.0935201,0.0802834,30
-1.5034,0.0924785,0.131779,72
-1.53155,0.0947467,0.18841,5
-1.60487,0.0995642,0.254675,7
-1.51857,0.0947419,0.295754,34
-0.713623,0.0446474,-0.0374725,9
-1.53843,0.09652,0.355873,37
-0.658605,0.0413204,-0.0115186,34
-1.52122,0.0957071,0.408416,38
-1.52462,0.0980579,0.0266673,92
-1.52073,0.0983414,0.0798647,34
-1.50307,0.0977262,0.131779,100
-1.51934,0.0990502,0.186948,5
-1.60649,0.105295,0.254988,8
-1.51433,0.0995197,0.294991,30
-0.689556,0.0454374,-0.0362165,10
-1.54393,0.102007,0.357222,35
-0.690382,0.045734,-0.0120771,31
-1.51895,0.100889,0.407899,36
-1.53225,0.10392,0.0268069,100
-1.49846,0.102155,0.0787133,22
-1.50274,0.10271,0.131779,100
-1.52493,0.104761,0.187679,5
-1.62384,0.112126,0.257804,9
-1.56627,0.108151,-0.137357,1
-1.54531,0.106974,0.301097,36
-0.697363,0.0483975,-0.0366352,10
-1.53968,0.107125,0.356322,35
-0.706176,0.0492568,-0.0123563,29
-1.52437,0.106594,0.409452,38
-1.53387,0.109411,0.0268418,100
-1.50208,0.10767,0.0789226,23
-1.51032,0.108526,0.132477,74
-1.52059,0.109797,0.187191,5
-1.60374,0.116364,0.254675,8
-1.56589,0.113618,-0.137357,1
-1.52339,0.110801,0.296899,29
-0.69719,0.0508314,-0.0366352,10
-1.53541,0.112215,0.355423,32
-0.666113,0.0487994,-0.0116582,33
-1.52592,0.112056,0.409969,35
-1.54345,0.11551,0.0270163,100
-1.51364,0.113812,0.0795507,22
-1.50397,0.113348,0.131954,75
-1.5202,0.115105,0.187191,5
-1.59545,0.121362,0.253424,7
-1.56546,0.119356,-0.137357,1
-1.5504,0.118208,0.302241,33
-0.744803,0.0569172,-0.0391473,8
-1.54278,0.118168,0.357222,38
-0.622075,0.0477568,-0.0108903,38
-1.52359,0.117234,0.409452,32
-1.53905,0.120585,0.0269465,100
-1.51324,0.119094,0.0795507,19
-1.50355,0.11886,0.131954,59
-1.52968,0.121195,0.18841,3
-1.6088,0.128028,0.255614,6
-1.54517,0.123236,-0.135614,1
-1.53038,0.122325,0.298425,32
-0.796353,0.0637933,-0.0418688,7
-1.54234,0.123823,0.357222,38
-1.53084,0.1229,-0.0268069,3
-1.53858,0.123791,0.413593,38
-1.53461,0.125899,0.0268767,100
-1.51679,0.124703,0.07976,21
-1.5071,0.124436,0.132302,54
-1.51736,0.125816,0.186948,5
-1.6359,0.135933,0.259994,7
-1.52885,0.127306,-0.13422,1
-1.52212,0.127013,0.296899,32
-1.55161,0.130019,0.359472,40
-1.54834,0.129745,-0.027121,10
-1.53044,0.128514,0.411522,42
-1.53418,0.130986,0.0268767,199
-1.51038,0.129485,0.079446,13
-1.51261,0.130208,0.132825,48
-1.511,0.130335,0.186216,5
-1.61574,0.139938,0.256865,6
-1.53236,0.132986,-0.134568,3
-1.5256,0.1324,0.297662,33
-1.53808,0.133753,-0.0809114,100
-1.53952,0.134149,0.356772,40
-1.54787,0.135149,-0.027121,18
-1.52805,0.133687,0.411005,41
-1.53372,0.136341,0.0268767,191
-1.53381,0.136619,0.0807021,16
-1.51018,0.135046,0.132651,29
-1.51449,0.135964,0.186704,5
-1.61526,0.145295,0.256865,6
-1.52398,0.137352,-0.133871,1
-1.531,0.138254,0.298807,36
-1.52567,0.138041,-0.0802834,94
-1.53516,0.13917,0.355873,40
-1.53547,0.139198,-0.0269116,30
-1.54107,0.139977,0.414628,38
-1.54122,0.142161,0.0270163,100
-1.53134,0.141788,0.0805974,15
-1.5097,0.140317,0.132651,27
-1.53775,0.143194,0.189629,5
-1.61081,0.150565,0.25624,6
-1.53539,0.143785,-0.134917,1
-1.54226,0.144429,0.301097,36
-1.53663,0.144442,0.356322,41
-1.53497,0.144557,-0.0269116,27
-1.51941,0.143359,0.408934,30
-1.53084,0.147133,0.0805974,11
-1.49733,0.144176,0.131605,27
-1.50958,0.145887,0.186216,5
-1.62404,0.157522,0.25843,6
-1.56264,0.151842,-0.137357,1
-1.53,0.148939,0.298807,36
-1.52268,0.148495,-0.0801787,1
-1.54775,0.15094,0.359022,42
-1.56232,0.152636,-0.0274003,70
-1.53813,0.150544,0.41411,31
-1.53426,0.15314,0.0808067,9
-1.49877,0.149861,0.131779,21
-1.49718,0.15023,0.184754,5
-1.6549,0.16664,0.263436,6
-1.56208,0.157568,-0.137357,1
-1.52553,0.154151,0.298044,34
-1.50623,0.152466,-0.0793413,1
-1.55494,0.157397,0.360821,41
-1.56971,0.159169,-0.0275399,100
-1.53565,0.155985,0.413593,36
-1.5197,0.156778,0.0266673,2
-1.56153,0.161368,0.0822721,9
-1.52398,0.158025,0.134046,12
-1.50649,0.156744,0.185973,3
-1.67985,0.175077,0.267503,6
-1.5328,0.160292,0.29957,36
-1.50966,0.158139,-0.0795507,1
-1.53694,0.160997,0.356772,43
-1.52933,0.160739,0.41204,36
-1.53707,0.163723,0.0269814,2
-1.55503,0.16591,0.0819581,9
-1.5175,0.162442,0.133523,11
-1.51583,0.162798,0.187191,8
-1.63998,0.176421,0.261246,5
-1.5303,0.165163,0.299189,33
-1.53295,0.16572,-0.0808067,1
-1.51702,0.163998,0.352273,45
-1.54076,0.166835,-0.0270512,100
-1.54415,0.167476,0.416181,35
-1.53453,0.1686,0.0269465,1
-1.55642,0.171556,0.0820628,11
-1.51299,0.167036,0.133174,11
-2.10522,0.233162,0.260069,20
-1.6315,0.181272,0.259994,4
-1.54926,0.172408,0.303005,38
-1.54549,0.172535,0.359022,41
-1.52244,0.1705,0.410487,32
-1.51804,0.172153,0.0266673,1
-1.56375,0.177891,0.0824815,15
-1.51237,0.17258,0.133174,11
-2.26612,0.258993,0.280056,23
-1.62693,0.186516,0.259368,5
-1.53887,0.176964,0.301097,36
-1.58731,0.182816,-0.0837375,1
-1.54292,0.177976,0.358572,40
-1.54103,0.17803,0.415663,35
-1.54123,0.180507,0.0270861,2
-1.55519,0.182418,0.0820628,19
-1.52561,0.179488,0.134394,12
-2.27107,0.267995,0.280787,24
-1.61842,0.191266,0.258117,5
-1.52654,0.180948,0.298807,36
-1.58667,0.188356,-0.0837375,1
-1.54809,0.18405,0.359922,38
-1.53893,0.182961,-0.0270512,3
-1.5193,0.180896,0.409969,32
-1.59026,0.191597,0.0279588,2
-1.54859,0.187126,0.0817488,9
-1.53486,0.18601,0.135266,9
-1.54892,0.187988,0.191579,26
-1.64128,0.199779,0.261871,5
-1.52788,0.186247,0.299189,38
-1.58603,0.193616,-0.0837375,1
-1.54167,0.188474,0.358572,40
-1.55416,0.190276,-0.0273305,3
-1.54742,0.189725,0.417734,36
-1.60148,0.198624,0.0281682,2
-1.56379,0.194503,0.0825861,6
-1.55203,0.193316,0.136835,9
-2.27116,0.283693,0.281031,23
-1.62685,0.203788,0.259681,8
-1.53696,0.192801,0.301097,39
-1.58535,0.199151,-0.0837375,1
-1.541,0.193854,0.358572,40
-1.56142,0.196699,-0.0274701,3
-1.53525,0.193675,0.414628,33
-1.58888,0.202694,0.0279588,2
-1.57895,0.201988,0.0834235,3
-2.2741,0.292125,0.281518,23
-1.63788,0.21098,0.261558,7
-1.54407,0.199169,0.302623,37
-1.58464,0.204684,-0.0837375,1
-1.54418,0.199732,0.359472,40
-1.54882,0.200607,-0.0272607,3
-1.51732,0.196796,0.409969,31
-1.58816,0.20824,0.0279588,2
-1.62774,0.214007,0.0860403,3
-1.53089,0.201546,0.135091,22
-2.27306,0.300061,0.281518,23
-1.64693,0.217992,0.263123,3
-1.52779,0.202494,0.29957,36
-1.58392,0.210214,-0.0837375,1
-1.54154,0.204864,0.359022,38
-1.57388,0.209442,-0.0277144,6
-1.53386,0.204388,0.414628,36
-1.56959,0.21138,0.0276446,2
-1.63688,0.221024,0.0865637,3
-1.70195,0.230113,0.150256,48
-2.26807,0.307461,0.281031,23
-1.67747,0.227996,0.268129,3
-1.52319,0.207297,0.298807,36
-1.58318,0.215742,-0.0837375,1
-1.5524,0.211824,0.361721,38
-1.58701,0.216829,-0.0279588,7
-1.53122,0.209479,0.41411,35
-1.57478,0.217679,0.0277493,2
-1.65394,0.228915,0.0875057,5
-1.51366,0.210037,0.133697,20
-2.25125,0.313187,0.279081,22
-1.70801,0.237918,0.273135,3
-1.53801,0.214785,0.30186,34
-1.58241,0.221267,-0.0837375,1
-1.53814,0.215351,0.358572,37
-1.57836,0.220982,-0.0278191,7
-1.53243,0.214823,0.414628,32
-1.56217,0.221218,0.0275399,2
-1.65907,0.235529,0.0878197,6
-2.21513,0.31526,0.195752,24
-2.23644,0.318691,0.277375,20
-1.70326,0.24332,0.272509,3
-1.54701,0.221274,0.303768,41
-1.58167,0.226513,-0.0837375,1
-1.53742,0.22045,0.358572,37
-1.58154,0.227058,-0.0278889,8
-1.55462,0.223469,0.42084,36
-1.58316,0.22983,0.0279239,2
-1.6444,0.239305,0.087087,7
-2.22393,0.32404,0.196623,23
-2.22746,0.325348,0.2764,19
-1.68677,0.246975,0.270006,4
-1.54817,0.226957,0.30415,39
-1.56901,0.230293,-0.0831095,1
-1.53664,0.225816,0.358572,37
-1.58074,0.232577,-0.0278889,17
-1.52134,0.224109,0.41204,31
-1.58631,0.235942,0.0279937,2
-1.67121,0.249167,0.0885524,10
-2.22273,0.332189,0.196623,23
-2.25969,0.338115,0.280543,17
-1.73473,0.260186,0.277828,6
-1.5526,0.233145,-0.137357,1
-1.53762,0.231171,0.302241,38
-1.59976,0.240798,-0.0847843,1
-1.54351,0.232608,0.360372,36
-1.60365,0.24167,-0.0283078,35
-1.5301,0.230859,0.414628,36
-1.59334,0.242961,0.0281333,2
-1.63676,0.249875,0.086773,10
-2.24125,0.34296,0.198366,21
-2.25254,0.345492,0.279812,19
-1.74553,0.268039,0.279705,7
-1.55177,0.238563,-0.137357,1
-1.52904,0.235342,0.300715,38
-1.56338,0.240906,-0.0829002,1
-1.54847,0.238885,0.361721,38
-1.59291,0.245741,-0.0281333,27
-1.52546,0.235609,0.413593,32
-1.58659,0.24732,0.0280286,5
-1.61418,0.252196,0.0856216,11
-1.55504,0.243512,0.137706,19
-2.26315,0.354805,0.281274,20
-1.72507,0.271064,0.276576,6
-1.55093,0.243979,-0.137357,1
-1.53989,0.242241,0.303005,38
-1.56257,0.246089,-0.0829002,1
-1.53997,0.242805,0.359922,38
-1.59797,0.252236,-0.028238,11
-1.54753,0.244551,0.419805,35
-1.58375,0.252541,0.0279937,14
-1.58173,0.252786,0.0839469,23
-2.21526,0.35443,0.196275,19
-2.26778,0.363646,0.282006,18
-1.69485,0.272382,0.271883,3
-1.58946,0.255443,-0.140844,1
-1.54872,0.249174,0.304913,42
-1.57748,0.254083,-0.0837375,1
-1.53911,0.248179,0.359922,38
-1.57339,0.253988,-0.0278191,7
-1.52569,0.246561,0.41411,32
-1.60259,0.261286,0.0283427,23
-1.58675,0.259272,0.0842609,42
-2.17861,0.356371,0.193137,14
-2.27825,0.373486,0.283468,19
-1.65101,0.271251,0.265,3
-1.61608,0.265512,-0.143284,1
-1.55366,0.255535,0.306058,43
-1.59235,0.262183,-0.0845749,1
-1.54208,0.254184,0.360821,38
-1.57052,0.259153,-0.0277842,7
-1.53244,0.253144,0.416181,32
-1.60562,0.267536,0.0284125,8
-1.59175,0.265796,0.0845749,48
-2.06338,0.344921,0.183027,13
-2.28672,0.383076,0.284687,19
-1.62668,0.273088,0.261246,3
-1.59549,0.267853,-0.141541,1
-1.54695,0.25998,0.304913,46
-1.61506,0.271717,-0.085831,1
-1.54311,0.259889,0.361271,33
-1.58144,0.266628,-0.0279937,6
-1.52583,0.257528,0.414628,30
-1.61059,0.274145,0.0285172,6
-1.58687,0.270679,0.0843656,44
-1.53975,0.262918,0.13666,10
-2.26581,0.387708,0.282249,18
-1.6335,0.280099,0.262497,6
-1.60633,0.275441,-0.142587,1
-1.52281,0.261393,0.300333,46
-1.60229,0.275323,-0.0852029,1
-1.53067,0.263291,0.358572,36
-1.5805,0.272147,-0.0279937,5
-1.52873,0.263509,0.415663,28
-1.62538,0.282505,0.0287965,7
-1.58592,0.276216,0.0843656,34
-1.53686,0.267948,0.136486,6
-2.25662,0.394248,0.281274,19
-1.6617,0.290909,0.26719,6
-1.59751,0.279672,-0.14189,1
-1.50835,0.264335,0.297662,56
-1.57377,0.276083,-0.0837375,1
-1.5259,0.267959,0.357672,37
-1.57166,0.276278,-0.027854,5
-1.51829,0.267169,0.413075,25
-1.61454,0.286431,0.0286219,16
-1.55938,0.277206,0.0830048,19
-1.53591,0.273311,0.136486,7
-2.27086,0.404911,0.283224,18
-1.64706,0.294276,0.265,6
-1.59652,0.285246,-0.14189,1
-1.45717,0.260611,0.28774,50
-1.5728,0.281575,-0.0837375,1
-1.50961,0.270534,0.354073,31
-1.551,0.278231,-0.027505,3
-1.50594,0.270418,0.409969,13
-1.60172,0.289928,0.0284125,22
-1.58203,0.286648,0.0842609,8
-1.53103,0.277959,0.136137,9
-2.28115,0.414967,0.284687,18
-1.62081,0.295136,0.260933,8
-1.58376,0.288674,-0.140844,1
-1.45239,0.264992,0.286977,74
-1.57181,0.287063,-0.0837375,1
-1.50482,0.275101,0.353173,22
-1.5481,0.283013,-0.0274701,2
-1.42522,0.260806,0.388229,8
-1.58502,0.292336,0.0281333,11
-1.5987,0.295436,0.0852029,7
-1.52025,0.281488,0.135266,10
-1.50878,0.279636,0.18841,18
-1.60424,0.297906,0.25843,7
-1.61408,0.300026,-0.143633,1
-1.4322,0.266219,0.283161,42
-1.57085,0.292274,-0.0837375,1
-1.44451,0.269028,0.339226,11
-1.54514,0.288049,-0.0274352,3
-1.32555,0.247352,0.361311,12
-1.60168,0.301193,0.0284474,3
-1.60158,0.301754,0.0854123,4
-1.51735,0.286158,0.135091,12
-1.52361,0.28844,0.245602,3
-1.37918,0.261347,0.272857,51
-1.4717,0.279145,-0.0785039,1
-1.32869,0.25226,0.312232,31
-1.50876,0.286721,-0.0268069,2
-1.37972,0.262446,0.376323,12
-1.55741,0.298501,0.0276795,3
-1.60052,0.307343,0.0854123,7
-1.44019,0.276815,-0.285069,1
-1.52021,0.292471,0.13544,13
-1.41908,0.273271,0.177442,11
-1.48768,0.287021,0.23997,2
-1.31461,0.254105,0.260263,56
-1.51773,0.293643,-0.0810161,1
-1.32393,0.256387,0.311332,55
-1.43511,0.277918,-0.0255154,2
-1.53431,0.297406,0.418769,12
-1.54257,0.301521,0.0274352,8
-1.58376,0.30986,0.0845749,9
-1.38141,0.270522,-0.27362,1
-1.51527,0.297009,0.135091,12
-1.42391,0.279618,0.178173,1
-1.33936,0.263257,0.216192,3
-1.54047,0.303066,-0.137357,1
-1.31949,0.259831,0.261408,100
-1.45007,0.285807,-0.0774572,1
-1.42436,0.280997,0.335177,12
-1.3792,0.272089,-0.0245381,4
-1.54842,0.305754,0.42291,22
-1.52587,0.303514,0.0271559,13
-1.56504,0.311873,0.0836329,8
-1.32655,0.26459,-0.262935,1
-1.50836,0.301126,0.134568,11
-1.42768,0.285019,-0.230584,1
-1.36652,0.273058,0.171105,2
-1.30938,0.262114,0.211499,12
-1.32825,0.266133,0.263316,83
-1.37079,0.274906,-0.0732704,1
-1.54188,0.309497,0.363071,25
-1.37236,0.27572,-0.0244334,8
-1.54735,0.311157,0.42291,32
-1.4856,0.300899,0.0264578,19
-1.53262,0.31098,0.0819581,6
-1.32952,0.269768,-0.263698,1
-1.48197,0.300972,0.132302,7
-1.42668,0.290001,-0.230584,1
-1.3286,0.270306,0.166474,9
-1.32007,0.269051,0.213377,11
-1.46809,0.299221,-0.131082,1
-1.49274,0.304516,0.296136,21
