# .PCD v.7 - Point Cloud Data file format
VERSION .7
FIELDS x y z intensity normals observationDirections
SIZE 4 4 4 4 4 4
TYPE F F F F F F
COUNT 1 1 1 1 3 3
WIDTH 531
HEIGHT 1
POINTS 531
DATA ascii
0.986468 -0.253833 0.0533827 34 -0.349067 0.93311 0.0863559 -0.986468 0.253833 -0.0533827
0.897144 -0.231182 -0.146736 97 -0.514659 0.648099 0.561332 -0.897144 0.231182 0.146736
0.999549 -0.257757 0.126744 68 -0.298985 0.954162 0.0134977 -0.999549 0.257757 -0.126744
0.916852 -0.236602 -0.116263 35 0.0149938 0.998575 0.0512201 -0.916852 0.236602 0.116263
0.910536 -0.235141 -0.082275 63 0.0691143 0.994873 0.0738314 -0.910536 0.235141 0.082275
0.942747 -0.244162 -0.0169986 42 -0.030582 0.997717 0.0602119 -0.942747 0.244162 0.0169986
0.879515 -0.229588 -0.176689 63 -0.126726 0.991803 -0.0163668 -0.879515 0.229588 0.176689
0.997017 -0.261376 0.200349 56 -0.298985 0.954162 0.0134977 -0.997017 0.261376 -0.200349
0.941889 -0.247451 -0.0169986 42 -0.0168799 0.00467951 -0.999847 -0.941889 0.247451 0.0169986
0.939566 -0.248419 0.0169637 25 -0.117753 0.991044 0.0629833 -0.939566 0.248419 -0.0169637
0.864716 -0.228791 -0.206505 99 -0.126726 0.991803 -0.0163668 -0.864716 0.228791 0.206505
0.982226 -0.260249 0.0888989 33 -0.349067 0.93311 0.0863559 -0.982226 0.260249 -0.0888989
0.89169 -0.236427 -0.14611 100 -0.127591 0.949519 0.286591 -0.89169 0.236427 0.14611
0.991969 -0.263201 0.126013 56 -0.376274 0.923218 0.0780136 -0.991969 0.263201 -0.126013
0.999893 -0.265864 0.201113 56 -0.376274 0.923218 0.0780136 -0.999893 0.265864 -0.201113
0.914869 -0.243428 -0.0496145 37 -0.030582 0.997717 0.0602119 -0.914869 0.243428 0.0496145
0.83042 -0.222355 -0.230349 50 0.249149 -0.0646372 0.966306 -0.83042 0.222355 0.230349
0.871482 -0.233676 -0.208305 93 0.217028 -0.0545801 0.974638 -0.871482 0.233676 0.208305
0.945222 -0.253625 0.0512892 22 0.0504544 -0.013565 -0.998634 -0.945222 0.253625 -0.0512892
0.857074 -0.229973 -0.172491 71 -0.127591 0.949519 0.286591 -0.857074 0.229973 0.172491
0.887531 -0.23881 -0.112851 46 0.117368 -0.0320347 0.992572 -0.887531 0.23881 0.112851
0.989962 -0.266556 0.162379 43 -0.376274 0.923218 0.0780136 -0.989962 0.266556 -0.162379
1.00848 -0.271732 0.203021 51 -0.00939862 0.999952 0.00259611 -1.00848 0.271732 -0.203021
0.82591 -0.22424 -0.229314 51 0.249118 -0.0692053 0.965997 -0.82591 0.22424 0.229314
0.920486 -0.25009 0.0166496 31 -0.117753 0.991044 0.0629833 -0.920486 0.25009 -0.0166496
0.940476 -0.255874 0.0510799 19 0.0504544 -0.013565 -0.998634 -0.940476 0.255874 -0.0510799
0.852477 -0.231932 -0.171728 79 0.183565 -0.0504782 0.981711 -0.852477 0.231932 0.171728
0.943906 -0.256984 0.0855869 26 -0.108623 0.965269 0.237605 -0.943906 0.256984 -0.0855869
0.874812 -0.238337 -0.143607 100 -0.127591 0.949519 0.286591 -0.874812 0.238337 0.143607
0.9959 -0.271513 0.126744 35 -0.00939862 0.999952 0.00259611 -0.9959 0.271513 -0.126744
0.886065 -0.241901 -0.0803576 86 -0.0323279 0.999426 -0.0100959 -0.886065 0.241901 0.0803576
0.914218 -0.250273 -0.0165449 67 -0.328018 0.942748 0.0602578 -0.914218 0.250273 0.0165449
0.911895 -0.251178 0.01651 37 -0.117753 0.991044 0.0629833 -0.911895 0.251178 -0.01651
0.843528 -0.232505 -0.202006 100 -0.126726 0.991803 -0.0163668 -0.843528 0.232505 0.202006
0.931479 -0.257097 0.0845411 28 -0.108623 0.965269 0.237605 -0.931479 0.257097 -0.0845411
0.982366 -0.27188 0.16144 31 -0.00939862 0.999952 0.00259611 -0.982366 0.27188 -0.16144
0.983858 -0.272478 0.198441 43 -0.384562 0.920648 0.0672242 -0.983858 0.272478 -0.198441
0.915585 -0.25598 0.0498238 30 0.0504544 -0.013565 -0.998634 -0.915585 0.25598 -0.0498238
0.852728 -0.238407 -0.17211 78 -0.127591 0.949519 0.286591 -0.852728 0.238407 0.17211
0.861714 -0.241243 -0.14173 100 0.150337 -0.0429701 0.987701 -0.861714 0.241243 0.14173
0.973803 -0.273174 0.160189 21 -0.384562 0.920648 0.0672242 -0.973803 0.273174 -0.160189
0.870926 -0.244314 -0.0791374 87 -0.0323279 0.999426 -0.0100959 -0.870926 0.244314 0.0791374
0.882583 -0.247917 -0.0480444 49 -0.305749 0.910418 0.278669 -0.882583 0.247917 0.0480444
0.902823 -0.253942 -0.0163704 77 -0.328018 0.942748 0.0602578 -0.902823 0.253942 0.0163704
0.829094 -0.234454 -0.230867 45 0.249118 -0.0692053 0.965997 -0.829094 0.234454 0.230867
0.904347 -0.255904 0.0164053 37 -0.0712305 0.967514 0.242574 -0.904347 0.255904 -0.0164053
0.901235 -0.255363 0.0490911 31 -0.318808 0.947193 0.0344471 -0.901235 0.255363 -0.0490911
0.925828 -0.262507 0.0841924 27 -0.108623 0.965269 0.237605 -0.925828 0.262507 -0.0841924
0.864667 -0.245328 -0.142355 100 0.150337 -0.0429701 0.987701 -0.864667 0.245328 0.142355
0.957643 -0.27225 0.157686 12 -0.0204899 0.996362 0.0827172 -0.957643 0.27225 -0.157686
0.885399 -0.251711 -0.0805319 85 -0.087016 0.990185 0.109375 -0.885399 0.251711 0.0805319
0.964937 -0.274505 0.195007 31 0.182621 -0.0510804 -0.981856 -0.964937 0.274505 -0.195007
0.898085 -0.255996 -0.0163005 89 -0.328018 0.942748 0.0602578 -0.898085 0.255996 0.0163005
0.899604 -0.257957 0.0163355 42 -0.318808 0.947193 0.0344471 -0.899604 0.257957 -0.0163355
0.837301 -0.24025 -0.201106 100 -0.0936278 0.978972 0.181242 -0.837301 0.24025 0.201106
0.896498 -0.257405 0.0488818 35 -0.318808 0.947193 0.0344471 -0.896498 0.257405 -0.0488818
0.913417 -0.262436 0.0831466 30 -0.108623 0.965269 0.237605 -0.913417 0.262436 -0.0831466
0.865704 -0.248891 -0.142668 100 -0.0354856 0.999245 0.0158304 -0.865704 0.248891 0.142668
0.926315 -0.266842 0.15268 20 -0.0204899 0.996362 0.0827172 -0.926315 0.266842 -0.15268
0.878912 -0.253519 -0.0479397 46 -0.101868 0.992031 0.0741407 -0.878912 0.253519 0.0479397
0.81816 -0.237543 -0.228278 52 -0.0936278 0.978972 0.181242 -0.81816 0.237543 0.228278
0.892937 -0.259422 0.0162307 43 -0.318808 0.947193 0.0344471 -0.892937 0.259422 -0.0162307
0.832714 -0.242083 -0.200206 100 -0.0936278 0.978972 0.181242 -0.832714 0.242083 0.200206
0.901348 -0.262207 0.0491958 29 -0.0712305 0.967514 0.242574 -0.901348 0.262207 -0.0491958
0.821908 -0.239097 -0.166385 97 0.182821 -0.0541916 0.981652 -0.821908 0.239097 0.166385
0.916684 -0.267189 0.117238 28 0.117071 -0.0332425 -0.992567 -0.916684 0.267189 -0.117238
0.857561 -0.250119 -0.109682 55 -0.56118 0.425252 0.710097 -0.857561 0.250119 0.109682
0.809913 -0.238217 -0.226208 60 -0.135668 0.990424 -0.0255952 -0.809913 0.238217 0.226208
0.819185 -0.24141 -0.166004 99 0.182821 -0.0541916 0.981652 -0.819185 0.24141 0.166004
0.900096 -0.265425 0.0821007 34 -0.0835921 0.0249634 0.996187 -0.900096 0.265425 -0.0821007
0.829842 -0.244866 -0.137037 100 0.150337 -0.0429701 0.987701 -0.829842 0.244866 0.137037
0.854055 -0.252496 -0.0779172 100 -0.087016 0.990185 0.109375 -0.854055 0.252496 0.0779172
0.876182 -0.259703 -0.0159515 100 -0.0706505 0.994601 0.0760059 -0.876182 0.259703 0.0159515
0.80486 -0.240092 -0.193908 100 -0.135668 0.990424 -0.0255952 -0.80486 0.240092 0.193908
0.886098 -0.264494 0.0484631 35 -0.318808 0.947193 0.0344471 -0.886098 0.264494 -0.0484631
0.83466 -0.249458 -0.137975 100 -0.0354856 0.999245 0.0158304 -0.83466 0.249458 0.137975
0.899581 -0.269032 0.115288 37 -0.116895 0.0369643 0.992456 -0.899581 0.269032 -0.115288
0.834874 -0.249839 -0.107001 63 -0.087016 0.990185 0.109375 -0.834874 0.249839 0.107001
0.841717 -0.252047 -0.0768714 100 -0.305749 0.910418 0.278669 -0.841717 0.252047 0.0768714
0.879101 -0.26391 -0.0160213 100 -0.41787 0.187912 0.888861 -0.879101 0.26391 0.0160213
0.886779 -0.268241 0.0810548 38 -0.0835921 0.0249634 0.996187 -0.886779 0.268241 -0.0810548
0.891037 -0.269869 0.114313 39 -0.116895 0.0369643 0.992456 -0.891037 0.269869 -0.114313
0.899815 -0.27287 0.148926 25 -0.0204899 0.996362 0.0827172 -0.899815 0.27287 -0.148926
0.84662 -0.257061 -0.0463697 55 -0.101868 0.992031 0.0741407 -0.84662 0.257061 0.0463697
0.859042 -0.261161 -0.0156723 100 -0.0706505 0.994601 0.0760059 -0.859042 0.261161 0.0156723
0.792594 -0.242169 -0.222067 66 -0.135668 0.990424 -0.0255952 -0.792594 0.242169 0.222067
0.816209 -0.249696 -0.197057 100 -0.0354856 0.999245 0.0158304 -0.816209 0.249696 0.197057
0.865132 -0.264828 0.0474164 40 0.0499374 -0.0153744 -0.998634 -0.865132 0.264828 -0.0474164
0.803471 -0.245953 -0.163333 97 -0.0982407 0.992626 0.0710055 -0.803471 0.245953 0.163333
0.878217 -0.269001 0.0803576 41 -0.0957893 0.995401 0.000996805 -0.878217 0.269001 -0.0803576
0.841899 -0.258841 -0.0461603 56 0.00141138 0.999928 0.011926 -0.841899 0.258841 0.0461603
0.846658 -0.260628 -0.0154628 100 -0.0706505 0.994601 0.0760059 -0.846658 0.260628 0.0154628
0.806358 -0.249918 -0.164096 96 -0.0982407 0.992626 0.0710055 -0.806358 0.249918 0.164096
0.865855 -0.268524 0.0793117 49 -0.0957893 0.995401 0.000996805 -0.865855 0.268524 -0.0793117
0.824629 -0.256212 -0.106026 66 -0.087016 0.990185 0.109375 -0.824629 0.256212 0.106026
0.897888 -0.279145 0.148926 27 -0.149742 0.0458491 0.987661 -0.897888 0.279145 -0.148926
0.820006 -0.254932 -0.0751282 100 0.083028 -0.0259559 0.996209 -0.820006 0.254932 0.0751282
0.846712 -0.263559 -0.0464743 55 0.00141138 0.999928 0.011926 -0.846712 0.263559 0.0464743
0.787197 -0.246542 -0.221031 67 -0.231916 0.932397 0.27722 -0.787197 0.246542 0.221031
0.867121 -0.271906 0.0476257 43 -0.0498443 0.016299 0.998624 -0.867121 0.271906 -0.0476257
0.864912 -0.271545 0.0793117 45 -0.0957893 0.995401 0.000996805 -0.864912 0.271545 -0.0793117
0.806597 -0.253391 -0.133908 12 -0.0579622 0.994388 0.0885014 -0.806597 0.253391 0.133908
0.874906 -0.275018 0.112607 45 -0.158201 0.982279 0.100499 -0.874906 0.275018 -0.112607
0.881883 -0.27738 0.146423 28 -0.126831 0.989184 -0.073676 -0.881883 0.27738 -0.146423
0.844865 -0.266385 -0.0154628 100 -0.0190832 0.999696 0.0156185 -0.844865 0.266385 0.0154628
0.782691 -0.247984 -0.219996 62 -0.231916 0.932397 0.27722 -0.782691 0.247984 0.219996
0.840633 -0.266503 0.015393 63 -0.0190832 0.999696 0.0156185 -0.840633 0.266503 -0.015393
0.801987 -0.254867 -0.133282 13 -0.0579622 0.994388 0.0885014 -0.801987 0.254867 0.133282
0.803995 -0.25566 -0.103589 72 -0.0579622 0.994388 0.0885014 -0.803995 0.25566 0.103589
0.884723 -0.281501 0.147048 27 -0.0486553 0.994491 0.0928482 -0.884723 0.281501 -0.147048
0.812556 -0.258695 -0.0746053 100 0.083028 -0.0259559 0.996209 -0.812556 0.258695 0.0746053
0.869843 -0.2771 0.177452 32 0.182621 -0.0510804 -0.981856 -0.869843 0.2771 -0.177452
0.778185 -0.249399 -0.218961 63 -0.231916 0.932397 0.27722 -0.778185 0.249399 0.218961
0.777478 -0.249471 -0.188509 100 -0.0982407 0.992626 0.0710055 -0.777478 0.249471 0.188509
0.806779 -0.259339 -0.134221 13 -0.148614 0.049852 -0.987638 -0.806779 0.259339 0.134221
0.811694 -0.261388 -0.0746053 100 0.00141138 0.999928 0.011926 -0.811694 0.261388 0.0746053
0.887605 -0.286005 0.181269 27 -0.0486553 0.994491 0.0928482 -0.887605 0.286005 -0.181269
0.824002 -0.265986 -0.0151138 100 -0.0190832 0.999696 0.0156185 -0.824002 0.265986 0.0151138
0.77114 -0.250558 -0.157608 100 -0.0579622 0.994388 0.0885014 -0.77114 0.250558 0.157608
0.846961 -0.275358 0.0779172 49 -0.121928 0.992249 0.0240091 -0.846961 0.275358 -0.0779172
0.798355 -0.259709 -0.132969 100 -0.148614 0.049852 -0.987638 -0.798355 0.259709 0.132969
0.867936 -0.283015 0.177452 29 -0.0486553 0.994491 0.0928482 -0.867936 0.283015 -0.177452
0.819267 -0.267619 -0.015044 100 -0.0190832 0.999696 0.0156185 -0.819267 0.267619 0.015044
0.822645 -0.270154 0.0151138 69 0.000113284 0.999996 0.00274051 -0.822645 0.270154 -0.0151138
0.831035 -0.27323 0.0458463 45 -0.0498443 0.016299 0.998624 -0.831035 0.27323 -0.0458463
0.77772 -0.255701 -0.159135 100 -0.0579622 0.994388 0.0885014 -0.77772 0.255701 0.159135
0.852227 -0.280692 0.11017 52 -0.158201 0.982279 0.100499 -0.852227 0.280692 -0.11017
0.793732 -0.26158 -0.102614 68 -0.319222 0.877589 0.35768 -0.793732 0.26158 0.102614
0.865079 -0.285428 0.177071 33 -0.0486553 0.994491 0.0928482 -0.865079 0.285428 -0.177071
0.822125 -0.271733 -0.0151138 100 0.000113284 0.999996 0.00274051 -0.822125 0.271733 0.0151138
0.817901 -0.271763 0.015044 71 0.0122446 0.995142 -0.097685 -0.817901 0.271763 -0.015044
0.760029 -0.252681 -0.18491 9 -0.213521 0.0727236 -0.974228 -0.760029 0.252681 0.18491
0.778641 -0.25917 -0.159516 100 -0.302615 0.944117 0.130639 -0.778641 0.25917 0.159516
0.775861 -0.258546 -0.129528 13 -0.319222 0.877589 0.35768 -0.775861 0.258546 0.129528
0.834292 -0.278017 0.107976 59 -0.121928 0.992249 0.0240091 -0.834292 0.278017 -0.107976
0.792814 -0.264349 -0.102614 75 -0.319222 0.877589 0.35768 -0.792814 0.264349 0.102614
0.846977 -0.282573 0.141417 37 -0.0486553 0.994491 0.0928482 -0.846977 0.282573 -0.141417
0.821171 -0.274601 -0.0151138 100 0.0122446 0.995142 -0.097685 -0.821171 0.274601 0.0151138
0.763595 -0.256681 -0.215855 67 -0.245691 0.0815647 -0.965911 -0.763595 0.256681 0.215855
0.764707 -0.257501 -0.156845 100 -0.310879 0.934771 0.171924 -0.764707 0.257501 0.156845
0.840205 -0.283087 0.0775686 55 -0.153815 0.987762 0.025815 -0.840205 0.283087 -0.0775686
0.774954 -0.261253 -0.129528 13 -0.148614 0.049852 -0.987638 -0.774954 0.261253 0.129528
0.798479 -0.269649 -0.0737338 100 0.110304 0.992987 -0.0425359 -0.798479 0.269649 0.0737338
0.842555 -0.284697 0.172873 36 -0.0486553 0.994491 0.0928482 -0.842555 0.284697 -0.172873
0.798444 -0.269948 -0.0441716 67 -0.102314 0.972224 0.210505 -0.798444 0.269948 0.0441716
0.812583 -0.275044 -0.0149742 100 0.0122446 0.995142 -0.097685 -0.812583 0.275044 0.0149742
0.75172 -0.255614 -0.212749 78 -0.245691 0.0815647 -0.965911 -0.75172 0.255614 0.212749
0.80647 -0.274388 0.0148695 76 -0.0881011 0.995628 0.0310477 -0.80647 0.274388 -0.0148695
0.752668 -0.256229 -0.18356 9 -0.213521 0.0727236 -0.974228 -0.752668 0.256229 0.18356
0.809173 -0.275623 0.0447996 50 -0.251366 0.959966 0.123612 -0.809173 0.275623 -0.0447996
0.833555 -0.28409 0.0770457 58 -0.153815 0.987762 0.025815 -0.833555 0.28409 -0.0770457
0.835587 -0.285434 0.139852 44 -0.153815 0.987762 0.025815 -0.835587 0.285434 -0.139852
0.743516 -0.255723 -0.210679 73 0.244004 -0.0819344 0.966307 -0.743516 0.255723 0.210679
0.807398 -0.277852 0.0149044 74 0.023256 0.997811 -0.0619013 -0.807398 0.277852 -0.0149044
0.735185 -0.253145 -0.179511 7 -0.279832 -0.863214 0.420185 -0.735185 0.253145 0.179511
0.808206 -0.278446 0.0447996 50 -0.251366 0.959966 0.123612 -0.808206 0.278446 -0.0447996
0.744329 -0.256438 -0.153029 100 -0.182581 0.0676511 -0.980861 -0.744329 0.256438 0.153029
0.771191 -0.266295 -0.100177 82 0.110304 0.992987 -0.0425359 -0.771191 0.266295 0.100177
0.821516 -0.283833 0.137662 48 0.0882131 0.995915 0.0192694 -0.821516 0.283833 -0.137662
0.772096 -0.266759 -0.0714677 100 -0.102314 0.972224 0.210505 -0.772096 0.266759 0.0714677
0.842402 -0.291214 0.173255 38 -0.0310021 0.99951 -0.00421296 -0.842402 0.291214 -0.173255
0.754541 -0.262759 -0.18446 9 -0.213521 0.0727236 -0.974228 -0.754541 0.262759 0.18446
0.807229 -0.281265 0.0447996 46 -0.251366 0.959966 0.123612 -0.807229 0.281265 -0.0447996
0.811536 -0.283242 0.105539 60 0.114651 -0.0413046 -0.992547 -0.811536 0.283242 -0.105539
0.770257 -0.268986 -0.100177 82 0.110304 0.992987 -0.0425359 -0.770257 0.268986 0.100177
0.827979 -0.289305 0.138914 42 -0.0310021 0.99951 -0.00421296 -0.827979 0.289305 -0.138914
0.826554 -0.288969 0.170202 43 -0.0310021 0.99951 -0.00421296 -0.826554 0.288969 -0.170202
0.738068 -0.259625 -0.209643 75 0.244004 -0.0819344 0.966307 -0.738068 0.259625 0.209643
0.782804 -0.275515 0.0144855 84 -0.0881011 0.995628 0.0310477 -0.782804 0.275515 -0.0144855
0.748076 -0.263586 -0.154174 100 -0.310879 0.934771 0.171924 -0.748076 0.263586 0.154174
0.819514 -0.289561 0.137662 48 -0.0310021 0.99951 -0.00421296 -0.819514 0.289561 -0.137662
0.814435 -0.287927 0.167912 47 -0.0486553 0.994491 0.0928482 -0.814435 0.287927 -0.167912
0.717808 -0.2556 -0.175912 7 -0.279832 -0.863214 0.420185 -0.717808 0.2556 0.175912
0.795839 -0.283542 0.0442762 57 -0.251366 0.959966 0.123612 -0.795839 0.283542 -0.0442762
0.754548 -0.268831 -0.1557 100 -0.310879 0.934771 0.171924 -0.754548 0.268831 0.1557
0.806986 -0.287672 0.0749539 66 -0.0818875 0.029889 0.996193 -0.806986 0.287672 -0.0749539
0.74795 -0.266774 -0.125773 16 0.146751 -0.0531355 0.987745 -0.74795 0.266774 0.125773
0.788974 -0.281562 0.102858 66 0.114651 -0.0413046 -0.992547 -0.788974 0.281562 -0.102858
0.753404 -0.269016 -0.0982267 89 -0.344905 -0.937443 0.0473436 -0.753404 0.269016 0.0982267
0.813425 -0.290768 0.167912 52 -0.0310021 0.99951 -0.00421296 -0.813425 0.290768 -0.167912
0.783184 -0.280421 -0.0145204 15 0.023256 0.997811 -0.0619013 -0.783184 0.280421 0.0145204
0.718745 -0.258764 -0.176362 9 -0.279832 -0.863214 0.420185 -0.718745 0.258764 0.176362
0.733288 -0.264144 -0.151502 100 -0.182581 0.0676511 -0.980861 -0.733288 0.264144 0.151502
0.748872 -0.270054 -0.126086 15 -0.344905 -0.937443 0.0473436 -0.748872 0.270054 0.126086
0.797322 -0.287683 0.104076 63 0.114651 -0.0413046 -0.992547 -0.797322 0.287683 -0.104076
0.806325 -0.291249 0.135785 52 0.143053 0.985892 0.0869086 -0.806325 0.291249 -0.135785
0.762675 -0.275482 -0.0709448 100 -0.095234 0.995437 -0.00592801 -0.762675 0.275482 0.0709448
0.816097 -0.29494 0.168675 50 0.0770377 -0.227619 -0.970698 -0.816097 0.29494 -0.168675
0.783634 -0.285065 0.0145553 82 -0.34828 0.926005 0.145657 -0.783634 0.285065 -0.0145553
0.734318 -0.26727 -0.180411 7 -0.279832 -0.863214 0.420185 -0.734318 0.26727 0.180411
0.78821 -0.287041 0.0439622 63 -0.0493704 0.0183893 0.998611 -0.78821 0.287041 -0.0439622
0.786748 -0.287286 0.132656 52 0.146368 -0.0544869 -0.987728 -0.786748 0.287286 -0.132656
0.742993 -0.271309 -0.0692017 13 -0.958679 -0.283591 0.0225821 -0.742993 0.271309 0.0692017
0.7691 -0.281146 -0.0429155 81 -0.0274531 0.988949 -0.145692 -0.7691 0.281146 0.0429155
0.756795 -0.276948 -0.0140666 13 -0.0881011 0.995628 0.0310477 -0.756795 0.276948 0.0140666
0.76762 -0.282277 0.0142761 89 0.157143 0.987465 -0.014806 -0.76762 0.282277 -0.0142761
0.783505 -0.288274 0.0437529 63 -0.0493704 0.0183893 0.998611 -0.783505 0.288274 -0.0437529
0.743262 -0.273909 -0.12546 15 0.146751 -0.0531355 0.987745 -0.743262 0.273909 0.12546
0.743144 -0.274013 -0.0972517 92 -0.958679 -0.283591 0.0225821 -0.743144 0.274013 0.0972517
0.755872 -0.279456 -0.0140666 13 0.157143 0.987465 -0.014806 -0.755872 0.279456 0.0140666
0.715362 -0.265614 -0.204467 81 -0.279832 -0.863214 0.420185 -0.715362 0.265614 0.204467
0.753558 -0.279946 0.0140317 95 0.157143 0.987465 -0.014806 -0.753558 0.279946 -0.0140317
0.782545 -0.29087 0.0437529 63 -0.0493704 0.0183893 0.998611 -0.782545 0.29087 -0.0437529
0.780535 -0.290434 0.0728622 75 -0.0818875 0.029889 0.996193 -0.780535 0.290434 -0.0728622
0.72939 -0.271548 -0.12327 15 0.146751 -0.0531355 0.987745 -0.72939 0.271548 0.12327
0.773855 -0.288255 0.101395 71 0.114651 -0.0413046 -0.992547 -0.773855 0.288255 -0.101395
0.745952 -0.277862 -0.0977392 90 -0.095234 0.995437 -0.00592801 -0.745952 0.277862 0.0977392
0.782975 -0.291808 0.132344 52 0.146368 -0.0544869 -0.987728 -0.782975 0.291808 -0.132344
0.792784 -0.295779 0.164477 57 0.143053 0.985892 0.0869086 -0.792784 0.295779 -0.164477
0.754498 -0.283146 0.0140666 94 -0.241876 0.924637 0.294182 -0.754498 0.283146 -0.0140666
0.702385 -0.263729 -0.173212 7 0.209544 -0.0796433 0.97455 -0.702385 0.263729 0.173212
0.774046 -0.290791 0.0433342 67 -0.34828 0.926005 0.145657 -0.774046 0.290791 -0.0433342
0.724788 -0.272574 -0.122645 15 0.146751 -0.0531355 0.987745 -0.724788 0.272574 0.122645
0.75989 -0.285926 0.0996891 75 0.113492 -0.0435931 -0.992582 -0.75989 0.285926 -0.0996891
0.747667 -0.281625 -0.0698989 100 -0.095234 0.995437 -0.00592801 -0.747667 0.281625 0.0698989
0.789961 -0.297714 0.164096 57 0.143053 0.985892 0.0869086 -0.789961 0.297714 -0.164096
0.743789 -0.280461 -0.0416594 88 -0.0274531 0.988949 -0.145692 -0.743789 0.280461 0.0416594
0.713537 -0.270477 -0.204467 81 0.241036 -0.0940896 0.965944 -0.713537 0.270477 0.204467
0.749765 -0.28436 0.0139968 95 -0.241876 0.924637 0.294182 -0.749765 0.28436 -0.0139968
0.706926 -0.268254 -0.174562 9 -0.109831 0.992767 0.0484805 -0.706926 0.268254 0.174562
0.712144 -0.270376 -0.148068 100 -0.178534 0.0688284 -0.981523 -0.712144 0.270376 0.148068
0.731218 -0.27791 -0.123896 15 -0.0458653 0.986778 0.155454 -0.731218 0.27791 0.123896
0.728059 -0.277145 -0.0681558 13 -0.105081 0.980555 0.165739 -0.728059 0.277145 0.0681558
0.798091 -0.303964 0.166004 55 -0.177684 0.0710401 0.98152 -0.798091 0.303964 -0.166004
0.740939 -0.282345 -0.0415548 97 -0.0274531 0.988949 -0.145692 -0.740939 0.282345 0.0415548
0.698156 -0.267438 -0.200326 94 -0.109831 0.992767 0.0484805 -0.698156 0.267438 0.200326
0.702346 -0.269324 -0.173662 9 0.209544 -0.0796433 0.97455 -0.702346 0.269324 0.173662
0.758995 -0.291047 0.0426015 80 -0.241876 0.924637 0.294182 -0.758995 0.291047 -0.0426015
0.72262 -0.277822 -0.0950581 97 -0.113918 0.043669 -0.99253 -0.72262 0.277822 0.0950581
0.765178 -0.294184 0.129841 63 0.146368 -0.0544869 -0.987728 -0.765178 0.294184 -0.129841
0.721508 -0.277539 -0.0676329 15 -0.105081 0.980555 0.165739 -0.721508 0.277539 0.0676329
0.740802 -0.285406 -0.0138572 13 0.10754 0.986301 0.125078 -0.740802 0.285406 0.0138572
0.697219 -0.269873 -0.200326 86 0.241036 -0.0940896 0.965944 -0.697219 0.269873 0.200326
0.744082 -0.288013 0.013927 97 0.10754 0.986301 0.125078 -0.744082 0.288013 -0.013927
0.760606 -0.295172 0.100177 73 0.113492 -0.0435931 -0.992582 -0.760606 0.295172 -0.100177
0.723545 -0.280935 -0.0953018 97 -0.113918 0.043669 -0.99253 -0.723545 0.280935 0.0953018
0.758622 -0.294707 0.128902 58 0.145213 -0.0568858 -0.987764 -0.758622 0.294707 -0.128902
0.709393 -0.275725 -0.066587 15 -0.105081 0.980555 0.165739 -0.709393 0.275725 0.066587
0.781364 -0.303699 0.162951 60 -0.177684 0.0710401 0.98152 -0.781364 0.303699 -0.162951
0.732347 -0.285089 -0.0137176 15 -0.921486 0.347977 -0.172556 -0.732347 0.285089 0.0137176
0.731898 -0.286239 0.0137176 100 -0.921486 0.347977 -0.172556 -0.731898 0.286239 -0.0137176
0.760664 -0.297795 0.0428108 78 -0.34828 0.926005 0.145657 -0.760664 0.297795 -0.0428108
0.728104 -0.285634 -0.0960331 94 -0.0276165 0.999573 -0.00954931 -0.728104 0.285634 0.0960331
0.771162 -0.302836 0.161043 69 -0.177684 0.0710401 0.98152 -0.771162 0.302836 -0.161043
0.733209 -0.288375 -0.0137525 16 -0.921486 0.347977 -0.172556 -0.733209 0.288375 0.0137525
0.681413 -0.269378 -0.169163 9 0.209544 -0.0796433 0.97455 -0.681413 0.269378 0.169163
0.75401 -0.298382 0.0709448 89 0.0813827 -0.0310224 -0.9962 -0.75401 0.298382 -0.0709448
0.710787 -0.28142 -0.12108 16 -0.0458653 0.986778 0.155454 -0.710787 0.28142 0.12108
0.73638 -0.291702 0.0972517 73 -0.20993 0.972957 -0.0963506 -0.73638 0.291702 -0.0972517
0.760219 -0.301453 0.129528 57 -0.113655 0.993135 0.0276734 -0.760219 0.301453 -0.129528
0.714908 -0.283485 -0.0672842 15 -0.105081 0.980555 0.165739 -0.714908 0.283485 0.0672842
0.728025 -0.2906 0.0136827 100 -0.921486 0.347977 -0.172556 -0.728025 0.2906 -0.0136827
0.738165 -0.294946 0.0416594 82 -0.127764 0.989557 0.0667288 -0.738165 0.294946 -0.0416594
0.735358 -0.294271 0.0972517 73 -0.113274 0.0457622 0.992509 -0.735358 0.294271 -0.0972517
0.702134 -0.281118 -0.0928644 100 0.0655694 0.992494 -0.103234 -0.702134 0.281118 0.0928644
0.749994 -0.300432 0.127963 60 0.145213 -0.0568858 -0.987764 -0.749994 0.300432 -0.127963
0.721262 -0.289068 -0.0679815 15 -0.10274 0.994215 -0.0313157 -0.721262 0.289068 0.0679815
0.709997 -0.284698 -0.0400893 99 -0.105081 0.980555 0.165739 -0.709997 0.284698 0.0400893
0.708979 -0.284433 0.176362 6 0.143053 0.985892 0.0869086 -0.708979 0.284433 -0.176362
0.690359 -0.278503 -0.171863 9 -0.187178 0.977486 0.0973952 -0.690359 0.278503 0.171863
0.735279 -0.296773 0.0415548 92 -0.127764 0.989557 0.0667288 -0.735279 0.296773 -0.0415548
0.680839 -0.274939 -0.142725 100 -0.17677 0.0722345 -0.981598 -0.680839 0.274939 0.142725
0.710586 -0.28724 -0.121393 17 -0.0276165 0.999573 -0.00954931 -0.710586 0.28724 0.121393
0.762436 -0.308818 0.159898 64 -0.177684 0.0710401 0.98152 -0.762436 0.308818 -0.159898
0.714502 -0.289548 -0.0404034 96 -0.10274 0.994215 -0.0313157 -0.714502 0.289548 0.0404034
0.711617 -0.288524 -0.0134034 15 -0.0020018 0.999797 0.0200509 -0.711617 0.288524 0.0134034
0.678506 -0.276617 -0.169163 9 0.0439343 0.986709 -0.156448 -0.678506 0.276617 0.169163
0.687147 -0.28028 -0.144252 100 -0.17677 0.0722345 -0.981598 -0.687147 0.28028 0.144252
0.72681 -0.296606 0.0686787 91 -0.20993 0.972957 -0.0963506 -0.72681 0.296606 -0.0686787
0.697096 -0.285047 -0.0658897 15 -0.0872529 0.992405 -0.0867128 -0.697096 0.285047 0.0658897
0.743182 -0.304044 0.156082 71 -0.124995 0.632039 -0.76479 -0.743182 0.304044 -0.156082
0.708704 -0.290372 -0.0133685 13 -0.0020018 0.999797 0.0200509 -0.708704 0.290372 0.0133685
0.706398 -0.290724 0.0133336 100 0.0442396 0.997577 -0.0537018 -0.706398 0.290724 -0.0133336
0.670329 -0.276016 -0.167364 10 0.0439343 0.986709 -0.156448 -0.670329 0.276016 0.167364
0.723928 -0.298382 0.0685044 100 0.000520676 0.999494 0.031816 -0.723928 0.298382 -0.0685044
0.717503 -0.296026 0.0953018 86 -0.20993 0.972957 -0.0963506 -0.717503 0.296026 -0.0953018
0.73123 -0.302138 0.153792 74 0.175604 -0.0737689 -0.981693 -0.73123 0.302138 -0.153792
0.703234 -0.290714 -0.03988 100 -0.10274 0.994215 -0.0313157 -0.703234 0.290714 0.03988
0.707686 -0.292844 -0.0133685 13 -0.127764 0.989557 0.0667288 -0.707686 0.292844 0.0133685
0.697993 -0.290118 0.013194 100 -0.0020018 0.999797 0.0200509 -0.697993 0.290118 -0.013194
0.724754 -0.301389 0.0411361 89 -0.00176907 0.999988 0.00454274 -0.724754 0.301389 -0.0411361
0.681548 -0.283562 -0.143488 100 -0.17677 0.0722345 -0.981598 -0.681548 0.283562 0.143488
0.722882 -0.300907 0.0685044 100 -0.00176907 0.999988 0.00454274 -0.722882 0.300907 -0.0685044
0.678363 -0.282514 -0.116387 16 0.0655694 0.992494 -0.103234 -0.678363 0.282514 0.116387
0.687097 -0.286433 -0.091402 100 -0.010028 0.997902 -0.0639688 -0.687097 0.286433 0.091402
0.734786 -0.306313 0.126086 70 -0.113655 0.993135 0.0276734 -0.734786 0.306313 -0.126086
0.689572 -0.287606 -0.0653668 15 -0.0381502 0.991803 0.12195 -0.689572 0.287606 0.0653668
0.696686 -0.290859 -0.039566 100 -0.0381502 0.991803 0.12195 -0.696686 0.290859 0.039566
0.680554 -0.285939 -0.143488 100 -0.175366 0.0759473 -0.98157 -0.680554 0.285939 0.143488
0.729174 -0.306517 0.0692017 90 -0.00176907 0.999988 0.00454274 -0.729174 0.306517 -0.0692017
0.690937 -0.291437 -0.0130893 15 0.0442396 0.997577 -0.0537018 -0.690937 0.291437 0.0130893
0.705208 -0.298762 0.0133685 100 -0.127764 0.989557 0.0667288 -0.705208 0.298762 -0.0133685
0.65848 -0.279101 -0.165114 10 -0.0999282 0.987287 0.123608 -0.65848 0.279101 0.165114
0.711652 -0.301639 0.040508 93 -0.0896746 0.99333 -0.0724839 -0.711652 0.301639 -0.040508
0.685516 -0.290984 -0.117952 17 0.167185 0.984455 0.0538345 -0.685516 0.290984 0.117952
0.681477 -0.289551 -0.0909145 100 -0.0872529 0.992405 -0.0867128 -0.681477 0.289551 0.0909145
0.710867 -0.302038 0.122332 77 -0.336299 0.941557 -0.0193321 -0.710867 0.302038 -0.122332
0.680264 -0.289175 -0.0646696 15 -0.0381502 0.991803 0.12195 -0.680264 0.289175 0.0646696
0.698366 -0.297158 -0.0397753 100 0.0834692 0.983395 -0.161144 -0.698366 0.297158 0.0397753
0.651901 -0.278732 -0.189973 100 0.0439343 0.986709 -0.156448 -0.651901 0.278732 0.189973
0.693181 -0.296382 0.0131591 100 0.0159635 -0.00694707 -0.999848 -0.693181 0.296382 -0.0131591
0.662926 -0.283583 -0.166464 10 -0.0999282 0.987287 0.123608 -0.662926 0.283583 0.166464
0.714267 -0.305693 0.0407174 99 -0.00176907 0.999988 0.00454274 -0.714267 0.305693 -0.0407174
0.717055 -0.30733 0.0957893 85 -0.336299 0.941557 -0.0193321 -0.717055 0.30733 -0.0957893
0.71707 -0.307633 0.123583 74 -0.113655 0.993135 0.0276734 -0.71707 0.307633 -0.123583
0.671927 -0.288405 -0.0639723 15 -0.0381502 0.991803 0.12195 -0.671927 0.288405 0.0639723
0.712616 -0.305869 0.150739 79 0.175604 -0.0737689 -0.981693 -0.712616 0.305869 -0.150739
0.697377 -0.299472 -0.0397753 100 0.0834692 0.983395 -0.161144 -0.697377 0.299472 0.0397753
0.694448 -0.298502 -0.013194 15 0.0159864 -0.00682707 0.999849 -0.694448 0.298502 0.013194
0.64762 -0.279714 -0.162865 10 -0.0645745 0.99789 -0.00674824 -0.64762 0.279714 0.162865
0.711363 -0.307392 0.0406127 99 -0.935551 0.0286959 -0.352025 -0.711363 0.307392 -0.0406127
0.661763 -0.286233 -0.114197 19 -0.010028 0.997902 -0.0639688 -0.661763 0.286233 0.114197
0.699582 -0.302736 0.0935957 91 -0.653988 0.748385 0.110543 -0.699582 0.302736 -0.0935957
0.717804 -0.310919 0.123896 74 0.142984 -0.0634299 -0.98769 -0.717804 0.310919 -0.123896
0.674573 -0.292333 -0.0643209 15 0.041027 0.999003 -0.0176197 -0.674573 0.292333 0.0643209
0.711544 -0.308355 0.150739 87 0.175604 -0.0737689 -0.981693 -0.711544 0.308355 -0.150739
0.691568 -0.300128 -0.0131591 13 0.0159864 -0.00682707 0.999849 -0.691568 0.300128 0.0131591
0.649939 -0.283276 -0.189973 100 -0.0645745 0.99789 -0.00674824 -0.649939 0.283276 0.189973
0.687429 -0.299616 0.0130893 100 0.0159635 -0.00694707 -0.999848 -0.687429 0.299616 -0.0130893
0.643067 -0.280415 -0.161965 10 -0.0645745 0.99789 -0.00674824 -0.643067 0.280415 0.161965
0.697471 -0.304283 0.03988 97 -0.0896746 0.99333 -0.0724839 -0.697471 0.304283 -0.03988
0.701142 -0.306176 0.0669356 99 -0.935551 0.0286959 -0.352025 -0.701142 0.306176 -0.0669356
0.673548 -0.294686 -0.0643209 15 0.041027 0.999003 -0.0176197 -0.673548 0.294686 0.0643209
0.686853 -0.300936 -0.0130893 16 -0.106648 0.992734 0.0557253 -0.686853 0.300936 0.0130893
0.686326 -0.302134 0.0130893 100 -0.0648475 0.996228 0.0576547 -0.686326 0.302134 -0.0130893
0.65575 -0.288947 -0.139291 16 -0.175366 0.0759473 -0.98157 -0.65575 0.288947 0.139291
0.701892 -0.309425 0.0671099 100 -0.0746739 0.997169 -0.00879053 -0.701892 0.309425 -0.0671099
0.66512 -0.293353 -0.115136 20 0.0602608 0.997802 -0.0275696 -0.66512 0.293353 0.115136
0.697398 -0.307734 0.0935957 100 -0.653988 0.748385 0.110543 -0.697398 0.307734 -0.0935957
0.66284 -0.292624 -0.0889646 100 0.0602608 0.997802 -0.0275696 -0.66284 0.292624 0.0889646
0.679535 -0.300419 -0.038938 100 -0.00295912 0.99998 0.00562504 -0.679535 0.300419 0.038938
0.686204 -0.305088 0.0393566 96 -0.0648475 0.996228 0.0576547 -0.686204 0.305088 -0.0393566
0.693527 -0.308633 0.0664127 100 -0.0746739 0.997169 -0.00879053 -0.693527 0.308633 -0.0664127
0.673167 -0.299572 -0.1167 22 -0.0142271 0.996832 -0.0782517 -0.673167 0.299572 0.1167
0.632983 -0.283943 -0.160165 10 -0.0523911 0.997942 0.0369636 -0.632983 0.283943 0.160165
0.687011 -0.308179 0.0394613 100 -0.0746739 0.997169 -0.00879053 -0.687011 0.308179 -0.0394613
0.637648 -0.286169 -0.135856 16 -0.172001 0.984779 -0.0250134 -0.637648 0.286169 0.135856
0.693476 -0.311661 0.0933519 100 -0.114966 0.991486 -0.0611414 -0.693476 0.311661 -0.0933519
0.646857 -0.29098 -0.0620549 15 -0.0201702 0.986704 0.161271 -0.646857 0.29098 0.0620549
0.674601 -0.303886 -0.0129148 17 -0.106648 0.992734 0.0557253 -0.674601 0.303886 0.0129148
0.632038 -0.28604 -0.160165 10 -0.0523911 0.997942 0.0369636 -0.632038 0.28604 0.160165
0.642324 -0.291101 -0.111694 19 -0.131308 0.991246 0.0137501 -0.642324 0.291101 0.111694
0.685207 -0.31068 0.092377 100 -0.0746739 0.997169 -0.00879053 -0.685207 0.31068 -0.092377
0.663459 -0.300959 -0.0894521 100 -0.00295912 0.99998 0.00562504 -0.663459 0.300959 0.0894521
0.642209 -0.291589 -0.0617063 15 -0.0201702 0.986704 0.161271 -0.642209 0.291589 0.0617063
0.690022 -0.313298 0.147305 93 -0.173316 0.0825847 0.981398 -0.690022 0.313298 -0.147305
0.661912 -0.300674 -0.0381006 100 -0.00295912 0.99998 0.00562504 -0.661912 0.300674 0.0381006
0.632646 -0.288847 -0.18635 100 -0.131308 0.991246 0.0137501 -0.632646 0.288847 0.18635
0.667544 -0.304921 0.0128101 100 -0.106648 0.992734 0.0557253 -0.667544 0.304921 -0.0128101
0.639205 -0.292246 -0.136619 16 -0.173349 0.082739 -0.981379 -0.639205 0.292246 0.136619
0.648438 -0.296741 -0.112946 22 0.10245 0.993927 -0.0401516 -0.648438 0.296741 0.112946
0.649718 -0.297601 -0.0877459 100 0.10245 0.993927 -0.0401516 -0.649718 0.297601 0.0877459
0.696769 -0.3193 0.121393 85 -0.0400772 0.999192 -0.00316522 -0.696769 0.3193 -0.121393
0.650243 -0.297979 -0.0625778 15 0.0834692 0.983395 -0.161144 -0.650243 0.297979 0.0625778
0.679945 -0.311734 0.145396 88 -0.173316 0.0825847 0.981398 -0.679945 0.311734 -0.145396
0.662412 -0.303976 0.168263 6 -0.124995 0.632039 -0.76479 -0.662412 0.303976 -0.168263
0.66514 -0.305368 -0.0127752 19 -0.0567764 0.998003 0.0276733 -0.66514 0.305368 0.0127752
0.631634 -0.291054 -0.18635 100 -0.131308 0.991246 0.0137501 -0.631634 0.291054 0.18635
0.661028 -0.304738 0.0127054 100 -0.0567764 0.998003 0.0276733 -0.661028 0.304738 -0.0127054
0.619357 -0.285659 -0.157466 10 -0.0523911 0.997942 0.0369636 -0.619357 0.285659 0.157466
0.670997 -0.309618 0.0387286 100 0.0144424 0.998711 0.0486596 -0.670997 0.309618 -0.0387286
0.631051 -0.291185 -0.135093 16 -0.131308 0.991246 0.0137501 -0.631051 0.291185 0.135093
0.680161 -0.31399 0.0655411 100 0.0500734 0.998746 0.000368995 -0.680161 0.31399 -0.0655411
0.645605 -0.298175 -0.112633 19 0.10245 0.993927 -0.0401516 -0.645605 0.298175 0.112633
0.645583 -0.298575 -0.0622292 15 -0.29349 0.951087 0.0964185 -0.645583 0.298575 0.0622292
0.682417 -0.315754 0.14616 86 -0.173316 0.0825847 0.981398 -0.682417 0.315754 -0.14616
0.656812 -0.304325 -0.0126355 17 -0.0567764 0.998003 0.0276733 -0.656812 0.304325 0.0126355
0.660859 -0.307743 0.0382053 95 0.087576 0.996106 -0.0101443 -0.660859 0.307743 -0.0382053
0.64277 -0.299592 -0.11232 19 0.0622084 0.990161 -0.125344 -0.64277 0.299592 0.11232
0.612098 -0.287249 -0.181173 100 0.0480192 0.986969 0.153579 -0.612098 0.287249 0.181173
0.620876 -0.291633 -0.158366 10 -0.131308 0.991246 0.0137501 -0.620876 0.291633 0.158366
0.618341 -0.290574 -0.132803 16 -0.923567 0.377811 0.0654403 -0.618341 0.290574 0.132803
0.625632 -0.294267 -0.109504 20 0.10245 0.993927 -0.0401516 -0.625632 0.294267 0.109504
0.677154 -0.318645 0.0918895 100 0.055214 0.998413 -0.0110927 -0.677154 0.318645 -0.0918895
0.680878 -0.320687 0.119203 90 -0.0400772 0.999192 -0.00316522 -0.680878 0.320687 -0.119203
0.676644 -0.318837 0.145396 100 -0.0400772 0.999192 -0.00316522 -0.676644 0.318837 -0.145396
0.650369 -0.306595 -0.0376819 100 -0.0478308 0.0253929 -0.998533 -0.650369 0.306595 0.0376819
0.614584 -0.291038 -0.182209 100 -0.923567 0.377811 0.0654403 -0.614584 0.291038 0.182209
0.648764 -0.307363 0.0125308 100 -0.0493138 0.998603 -0.0189898 -0.648764 0.307363 -0.0125308
0.667773 -0.316511 0.0387286 100 0.0500734 0.998746 0.000368995 -0.667773 0.316511 -0.0387286
0.676242 -0.321248 0.118577 99 -0.0542623 0.996794 -0.0588048 -0.676242 0.321248 -0.118577
0.657796 -0.312767 0.14158 94 -0.114966 0.991486 -0.0611414 -0.657796 0.312767 -0.14158
0.650033 -0.309354 -0.0125657 17 0.087576 0.996106 -0.0101443 -0.650033 0.309354 0.0125657
0.613564 -0.293181 -0.182209 100 -0.121557 0.992207 0.0273847 -0.613564 0.293181 0.182209
0.645937 -0.30865 0.0124959 100 -0.0493138 0.998603 -0.0189898 -0.645937 0.30865 -0.0124959
0.608327 -0.290809 -0.155666 10 0.0480192 0.986969 0.153579 -0.608327 0.290809 0.155666
0.661334 -0.316574 0.0641466 100 0.055214 0.998413 -0.0110927 -0.661334 0.316574 -0.0641466
0.675116 -0.323607 0.118577 99 -0.0542623 0.996794 -0.0588048 -0.675116 0.323607 -0.118577
0.632368 -0.303252 -0.0613576 15 -0.0781351 0.039955 -0.996142 -0.632368 0.303252 0.0613576
0.658526 -0.315795 0.141962 100 -0.173316 0.0825847 0.981398 -0.658526 0.315795 -0.141962
0.65026 -0.313508 0.0126006 100 0.0500734 0.998746 0.000368995 -0.65026 0.313508 -0.0126006
0.603798 -0.291238 -0.154766 10 0.0480192 0.986969 0.153579 -0.603798 0.291238 0.154766
0.633169 -0.305541 0.0368445 96 -0.0493138 0.998603 -0.0189898 -0.633169 0.305541 -0.0368445
0.610012 -0.294366 -0.131658 16 0.10245 0.993927 -0.0401516 -0.610012 0.294366 0.131658
0.657751 -0.317828 0.0896958 100 0.055214 0.998413 -0.0110927 -0.657751 0.317828 -0.0896958
0.623738 -0.301527 -0.0850648 100 -0.109878 0.0532322 -0.992519 -0.623738 0.301527 0.0850648
0.63674 -0.307949 -0.0618806 15 0.0958605 0.994822 0.0337511 -0.63674 0.307949 0.0618806
0.636391 -0.308055 -0.0370539 100 0.0958605 0.994822 0.0337511 -0.636391 0.308055 0.0370539
0.645433 -0.312571 0.165564 7 0.001093 0.999978 0.00651404 -0.645433 0.312571 -0.165564
0.63706 -0.308653 -0.0123563 17 0.0958605 0.994822 0.0337511 -0.63706 0.308653 0.0123563
0.604605 -0.293972 -0.180138 100 -0.00969241 0.999772 0.0190236 -0.604605 0.293972 0.180138
0.648261 -0.315618 0.0377866 100 -0.0656746 0.997772 -0.0117491 -0.648261 0.315618 -0.0377866
0.60192 -0.293056 -0.130132 17 -0.00969241 0.999772 0.0190236 -0.60192 0.293056 0.130132
0.643043 -0.313216 0.0625778 100 0.001093 0.999978 0.00651404 -0.643043 0.313216 -0.0625778
0.63217 -0.308057 -0.111381 20 0.0622084 0.990161 -0.125344 -0.63217 0.308057 0.111381
0.662189 -0.323114 0.1167 100 -0.0542623 0.996794 -0.0588048 -0.662189 0.323114 -0.1167
0.617755 -0.301433 -0.0601375 16 -0.0781351 0.039955 -0.996142 -0.617755 0.301433 0.0601375
0.668655 -0.326414 0.144633 100 -0.833833 0.414186 0.364928 -0.668655 0.326414 -0.144633
0.633517 -0.309398 -0.0369492 100 0.0958605 0.994822 0.0337511 -0.633517 0.309398 0.0369492
0.596637 -0.292677 -0.178068 100 -0.00969241 0.999772 0.0190236 -0.596637 0.292677 0.178068
0.639079 -0.313635 0.0124261 100 -0.0343755 0.998735 0.0367034 -0.639079 0.313635 -0.0124261
0.645362 -0.316998 0.0376819 100 -0.0656746 0.997772 -0.0117491 -0.645362 0.316998 -0.0376819
0.65166 -0.320939 0.141199 94 -0.0400772 0.999192 -0.00316522 -0.65166 0.320939 -0.141199
0.592149 -0.293044 -0.177032 100 -0.00969241 0.999772 0.0190236 -0.592149 0.293044 0.177032
0.605229 -0.300175 -0.107001 19 -0.382768 0.865915 0.321994 -0.605229 0.300175 0.107001
0.63647 -0.316224 0.138146 100 -0.0656746 0.997772 -0.0117491 -0.63647 0.316224 -0.138146
0.615245 -0.305812 -0.0360071 100 0.0958605 0.994822 0.0337511 -0.615245 0.305812 0.0360071
0.605843 -0.302855 -0.131658 16 -0.170163 0.086834 -0.981583 -0.605843 0.302855 0.131658
0.637945 -0.319042 0.0624035 100 -0.0998551 0.994579 -0.0289992 -0.637945 0.319042 -0.0624035
0.604177 -0.302286 -0.107001 19 0.13918 -0.0701203 0.987781 -0.604177 0.302286 0.107001
0.635498 -0.318095 0.0872585 100 -0.10432 0.994485 0.0108138 -0.635498 0.318095 -0.0872585
0.612368 -0.306651 -0.0840899 100 -0.382768 0.865915 0.321994 -0.612368 0.306651 0.0840899
0.655237 -0.328261 0.116074 97 -0.833833 0.414186 0.364928 -0.655237 0.328261 -0.116074
0.596991 -0.300647 -0.179103 100 -0.150631 0.988486 0.0143223 -0.596991 0.300647 0.179103
0.624174 -0.314746 0.0366352 100 -0.0343755 0.998735 0.0367034 -0.624174 0.314746 -0.0366352
0.592511 -0.29878 -0.128987 16 -0.170163 0.086834 -0.981583 -0.592511 0.29878 0.128987
0.60775 -0.306996 -0.0836024 100 -0.382768 0.865915 0.321994 -0.60775 0.306996 0.0836024
0.648798 -0.327874 0.115136 100 -0.0262802 0.999649 0.00341585 -0.648798 0.327874 -0.115136
0.61666 -0.311903 -0.0362165 100 -0.075315 0.978954 0.189676 -0.61666 0.311903 0.0362165
0.585603 -0.297479 -0.175997 100 0.0271874 0.99877 -0.0414758 -0.585603 0.297479 0.175997
0.62929 -0.31981 0.0123214 100 -0.025315 0.999572 0.014662 -0.62929 0.31981 -0.0123214
0.624851 -0.317828 0.0367398 100 -0.0656746 0.997772 -0.0117491 -0.624851 0.317828 -0.0367398
0.586215 -0.298176 -0.127842 16 0.0715104 0.996705 0.0382818 -0.586215 0.298176 0.127842
0.609094 -0.310081 -0.108253 19 -0.0058412 0.999967 -0.00565268 -0.609094 0.310081 0.108253
0.609084 -0.311014 -0.0119374 17 -0.015519 0.00809985 -0.999847 -0.609084 0.311014 0.0119374
0.583423 -0.299324 -0.12746 16 0.0622084 0.990161 -0.125344 -0.583423 0.299324 0.12746
0.625707 -0.321156 0.061532 100 -0.0998551 0.994579 -0.0289992 -0.625707 0.321156 -0.061532
0.59395 -0.304987 -0.10575 19 0.13918 -0.0701203 0.987781 -0.59395 0.304987 0.10575
0.634196 -0.326072 0.112946 100 -0.0262802 0.999649 0.00341585 -0.634196 0.326072 -0.112946
0.612691 -0.315286 -0.0361118 100 -0.075315 0.978954 0.189676 -0.612691 0.315286 0.0361118
0.635871 -0.327355 0.165114 14 -0.0262802 0.999649 0.00341585 -0.635871 0.327355 -0.165114
0.602662 -0.310391 -0.0118327 20 -0.015519 0.00809985 -0.999847 -0.602662 0.310391 0.0118327
0.576647 -0.298012 -0.173926 100 0.0271874 0.99877 -0.0414758 -0.576647 0.298012 0.173926
0.60395 -0.312256 0.0118676 100 -0.0493138 0.998603 -0.0189898 -0.60395 0.312256 -0.0118676
0.57466 -0.297239 -0.149367 11 0.0715104 0.996705 0.0382818 -0.57466 0.297239 0.149367
0.624582 -0.323338 0.061532 100 -0.00186997 0.998787 0.0492123 -0.624582 0.323338 -0.061532
0.587619 -0.304333 -0.104811 22 0.13918 -0.0701203 0.987781 -0.587619 0.304333 0.104811
0.600977 -0.311517 -0.0831149 16 -0.0058412 0.999967 -0.00565268 -0.600977 0.311517 0.0831149
0.6313 -0.327375 0.112633 100 -0.0262802 0.999649 0.00341585 -0.6313 0.327375 -0.112633
0.594288 -0.308181 -0.0585687 17 0.0767607 -0.0380484 0.996323 -0.594288 0.308181 0.0585687
0.623884 -0.323667 0.136619 100 -0.123476 0.989928 0.0692522 -0.623884 0.323667 -0.136619
0.604496 -0.313743 -0.0356931 100 0.15636 0.956168 -0.247578 -0.604496 0.313743 0.0356931
0.631266 -0.327776 0.164214 14 -0.0262802 0.999649 0.00341585 -0.631266 0.327776 -0.164214
0.573891 -0.299131 -0.173409 100 -0.446177 0.894404 0.0311071 -0.573891 0.299131 0.173409
0.566708 -0.295638 -0.147568 10 0.0715104 0.996705 0.0382818 -0.566708 0.295638 0.147568
0.607324 -0.316962 0.0359025 100 0.0352836 0.99685 0.0710231 -0.607324 0.316962 -0.0359025
0.619917 -0.323672 0.0611833 100 -0.00186997 0.998787 0.0492123 -0.619917 0.323672 -0.0611833
0.584802 -0.305467 -0.104498 20 0.13918 -0.0701203 0.987781 -0.584802 0.305467 0.104498
0.59455 -0.31122 -0.0351698 100 0.15636 0.956168 -0.247578 -0.59455 0.31122 0.0351698
0.624939 -0.327266 0.162865 14 -0.0262802 0.999649 0.00341585 -0.624939 0.327266 -0.162865
0.618194 -0.323871 -0.0121818 19 0.0165843 0.975191 0.220744 -0.618194 0.323871 0.0121818
0.608835 -0.320188 0.0120073 100 -0.025315 0.999572 0.014662 -0.608835 0.320188 -0.0120073
0.570846 -0.300337 -0.148918 11 -0.446177 0.894404 0.0311071 -0.570846 0.300337 0.148918
0.602679 -0.317219 0.0356931 100 -0.0478148 0.998731 0.0157937 -0.602679 0.317219 -0.0356931
0.590723 -0.31119 -0.10575 20 -0.0058412 0.999967 -0.00565268 -0.590723 0.31119 0.10575
0.59036 -0.311393 -0.0583943 16 -0.075315 0.978954 0.189676 -0.59036 0.311393 0.0583943
0.621609 -0.328015 0.136619 100 -0.123476 0.989928 0.0692522 -0.621609 0.328015 -0.136619
0.589927 -0.311428 -0.0349604 100 0.15636 0.956168 -0.247578 -0.589927 0.311428 0.0349604
0.58877 -0.31108 -0.0116233 21 -0.0493138 0.998603 -0.0189898 -0.58877 0.31108 0.0116233
0.614123 -0.326123 0.0608347 100 0.0754797 0.997131 0.00575777 -0.614123 0.326123 -0.0608347
0.615266 -0.327005 0.0855523 100 -0.00186997 0.998787 0.0492123 -0.615266 0.327005 -0.0855523
0.608653 -0.323763 0.109191 100 0.0925509 0.983652 -0.154476 -0.608653 0.323763 -0.109191
0.618727 -0.32926 0.136238 100 -0.168516 0.0916851 0.981426 -0.618727 0.32926 -0.136238
0.595889 -0.31724 -0.0353791 100 0.0165843 0.975191 0.220744 -0.595889 0.31724 0.0353791
0.562208 -0.30057 -0.170821 100 -0.227903 0.123275 -0.965849 -0.562208 0.30057 0.170821
0.603972 -0.323304 0.0359025 100 0.0754797 0.997131 0.00575777 -0.603972 0.323304 -0.0359025
0.604199 -0.323561 0.0599631 100 0.0754797 0.997131 0.00575777 -0.604199 0.323561 -0.0599631
0.612371 -0.328213 0.0853086 100 0.0925509 0.983652 -0.154476 -0.612371 0.328213 -0.0853086
0.587822 -0.315187 -0.0818962 18 0.10723 -0.0574075 0.992576 -0.587822 0.315187 0.0818962
0.614482 -0.329621 0.110443 100 0.137651 -0.0738842 -0.987721 -0.614482 0.329621 -0.110443
0.579393 -0.310798 -0.0575228 16 -0.408276 0.903594 0.129724 -0.579393 0.310798 0.0575228
0.608924 -0.326776 0.13433 100 -0.123476 0.989928 0.0692522 -0.608924 0.326776 -0.13433
0.591258 -0.317429 -0.0351698 100 0.0165843 0.975191 0.220744 -0.591258 0.317429 0.0351698
0.554354 -0.298863 -0.16875 100 -0.227903 0.123275 -0.965849 -0.554354 0.298863 0.16875
0.56424 -0.304447 -0.148018 11 -0.446177 0.894404 0.0311071 -0.56424 0.304447 0.148018
0.563206 -0.304016 -0.124407 18 -0.270733 0.957016 0.104038 -0.563206 0.304016 0.124407
0.564839 -0.305152 -0.101682 21 -0.270733 0.957016 0.104038 -0.564839 0.305152 0.101682
0.604237 -0.326573 0.0843336 100 0.0925509 0.983652 -0.154476 -0.604237 0.326573 -0.0843336
0.583121 -0.315687 -0.0347511 100 -0.408276 0.903594 0.129724 -0.583121 0.315687 0.0347511
0.558399 -0.303565 -0.170303 100 -0.227903 0.123275 -0.965849 -0.558399 0.303565 0.170303
0.590892 -0.322031 0.0826274 100 -0.0319448 0.998989 -0.031632 -0.590892 0.322031 -0.0826274
0.571718 -0.311581 -0.0799463 16 -0.408276 0.903594 0.129724 -0.571718 0.311581 0.0799463
0.612225 -0.333796 0.110443 100 0.137651 -0.0738842 -0.987721 -0.612225 0.333796 -0.110443
0.57546 -0.313881 -0.0573485 16 -0.408276 0.903594 0.129724 -0.57546 0.313881 0.0573485
0.599735 -0.327258 0.132803 100 0.166904 -0.0895246 -0.9819 -0.599735 0.327258 -0.132803
0.582016 -0.317721 -0.0347511 100 0.0165843 0.975191 0.220744 -0.582016 0.317721 0.0347511
0.585676 -0.321047 0.0116582 19 -0.025315 0.999572 0.014662 -0.585676 0.321047 -0.0116582
0.586658 -0.321718 0.0350651 100 -0.025315 0.999572 0.014662 -0.586658 0.321718 -0.0350651
0.600835 -0.329766 0.0599631 100 -0.119446 0.987046 0.107113 -0.600835 0.329766 -0.0599631
0.567202 -0.311564 -0.0794588 16 -0.327957 0.943857 0.0397125 -0.567202 0.311564 0.0794588
0.56871 -0.312909 -0.0340184 100 -0.327957 0.943857 0.0397125 -0.56871 0.312909 0.0340184
0.60953 -0.335369 0.160615 22 -0.19555 0.111351 0.974352 -0.60953 0.335369 -0.160615
0.547918 -0.302592 -0.167715 100 0.224955 -0.126392 0.966137 -0.547918 0.302592 0.167715
0.586359 -0.323955 0.0116931 100 -0.16456 0.986361 0.00344145 -0.586359 0.323955 -0.0116931
0.556663 -0.307802 -0.123644 18 -0.270733 0.957016 0.104038 -0.556663 0.307802 0.123644
0.594508 -0.328863 0.0594402 100 0.0536451 0.986033 0.157674 -0.594508 0.328863 -0.0594402
0.602637 -0.333634 0.0845773 100 -0.119446 0.987046 0.107113 -0.602637 0.333634 -0.0845773
0.571376 -0.316328 -0.08019 100 -0.408276 0.903594 0.129724 -0.571376 0.316328 0.08019
0.589261 -0.326364 0.106688 100 -0.0238006 0.99942 -0.0243711 -0.589261 0.326364 -0.106688
0.543535 -0.302528 -0.166679 100 0.224955 -0.126392 0.966137 -0.543535 0.302528 0.166679
0.58004 -0.322979 0.0115884 18 0.143287 0.983397 0.111356 -0.58004 0.322979 -0.0115884
0.563502 -0.313899 -0.148918 11 -0.447831 0.799618 0.400073 -0.563502 0.313899 0.148918
0.582767 -0.32463 0.0349604 100 0.0536451 0.986033 0.157674 -0.582767 0.32463 -0.0349604
0.55221 -0.307735 -0.122881 18 -0.0147283 0.995842 0.0899018 -0.55221 0.307735 0.122881
0.555511 -0.309829 -0.100744 22 0.135393 -0.0771387 0.987785 -0.555511 0.309829 0.100744
0.591126 -0.329828 0.0831149 100 -0.119446 0.987046 0.107113 -0.591126 0.329828 -0.0831149
0.551434 -0.307934 -0.0552567 16 0.0767607 -0.0380484 0.996323 -0.551434 0.307934 0.0552567
0.545685 -0.3066 -0.167715 100 0.224955 -0.126392 0.966137 -0.545685 0.3066 0.167715
0.570023 -0.320405 0.0114139 16 0.143287 0.983397 0.111356 -0.570023 0.320405 -0.0114139
0.536759 -0.301831 -0.142169 10 0.194343 -0.110623 0.974676 -0.536759 0.301831 0.142169
0.55097 -0.309949 -0.122881 18 -0.166359 0.0952364 -0.981455 -0.55097 0.309949 0.122881
0.581149 -0.327327 0.0818962 100 -0.0238006 0.99942 -0.0243711 -0.581149 0.327327 -0.0818962
0.581426 -0.327884 0.12975 100 0.166904 -0.0895246 -0.9819 -0.581426 0.327884 -0.12975
0.567086 -0.319928 -0.034123 100 -0.0456167 0.0257394 -0.998627 -0.567086 0.319928 0.034123
0.600833 -0.338967 0.159265 31 -0.19555 0.111351 0.974352 -0.600833 0.338967 -0.159265
0.574687 -0.324348 -0.0115186 19 -0.16456 0.986361 0.00344145 -0.574687 0.324348 0.0115186
0.584617 -0.331164 0.011728 20 -0.0531531 0.997536 0.0457915 -0.584617 0.331164 -0.011728
0.556661 -0.315842 -0.10137 21 0.135393 -0.0771387 0.987785 -0.556661 0.315842 0.10137
0.589188 -0.33457 0.107314 100 -0.135547 0.078278 0.987674 -0.589188 0.33457 -0.107314
0.58375 -0.331751 0.130513 100 -0.399758 0.867616 -0.295696 -0.58375 0.331751 -0.130513
0.589541 -0.335178 0.156566 32 -0.19555 0.111351 0.974352 -0.589541 0.335178 -0.156566
