x,y,z,intensity
-0.497576,0.1224,0.0996023,44
-0.565757,0.139382,0.134521,30
-0.645208,0.159195,0.178068,46
-0.493336,0.123185,0.0988391,29
-0.521785,0.130482,0.124173,32
-0.629656,0.157692,0.173926,28
-0.513771,0.130386,0.122373,22
-0.565443,0.143709,0.156327,22
-0.490666,0.126347,0.116975,11
-0.521913,0.134587,0.144421,12
-0.513987,0.134363,0.14235,12
-1.92357,1.22687,0.611331,1
-1.91928,1.23357,0.611331,1
-1.9182,1.24236,0.612366,1
-1.91709,1.25116,0.613401,1
-1.9087,1.25426,0.527285,1
-1.8998,1.24936,0.60926,1
-0.410967,0.27191,0.0957861,15
-1.5631,1.03498,0.432806,1
-1.91153,1.26665,0.614436,1
-0.410951,0.273863,0.0782172,14
-1.46691,0.977936,0.342693,3
-1.5076,1.00582,0.418409,1
-1.90709,1.27332,0.614436,1
-1.62849,1.09348,0.310679,44
-1.46186,0.981956,0.342311,5
-1.86312,1.25243,0.518287,1
-1.92508,1.29506,0.621683,1
-2.27671,1.53797,0.240376,2
-1.61648,1.09362,0.309115,42
-1.47143,0.995856,0.345364,6
-1.92327,1.30264,0.536283,1
-1.89816,1.2866,0.614436,1
-0.470622,0.320195,0.0298315,66
-2.27792,1.5504,0.241073,8
-1.61592,1.10148,0.30974,52
-1.46145,0.996562,0.343838,6
-1.89296,1.29177,0.529085,1
-1.89047,1.29104,0.613401,1
-0.832024,0.570125,0.0528593,9
-2.33165,1.5989,0.247348,16
-1.96574,1.34899,0.29273,1
-1.62529,1.11578,0.312243,52
-1.44826,0.994987,0.341548,6
-1.90771,1.31162,0.534484,1
-1.89254,1.30168,0.615472,1
-0.910566,0.628626,0.0579882,22
-2.44407,1.68857,0.259898,24
-1.98248,1.37018,0.295899,1
-1.62463,1.12369,0.312869,54
-1.44818,1.00202,0.342311,6
-1.91617,1.32682,0.538083,1
-1.90386,1.31928,0.620648,1
-0.9346,0.650048,0.059663,22
-2.45154,1.70577,0.261293,37
-1.9842,1.38163,0.296874,2
-1.61746,1.1271,0.312243,54
-1.44467,1.00707,0.342311,6
-1.89874,1.32458,0.534484,1
-1.92142,1.3414,0.627895,1
-0.85015,0.595282,0.0181156,9
-0.940504,0.659037,0.0601864,39
-2.43549,1.70788,0.260247,50
-1.9875,1.39424,0.298092,2
-1.61028,1.13047,0.311617,52
-1.45864,1.02477,0.346509,6
-1.913,1.34498,0.539883,1
-1.90093,1.33699,0.622719,1
-0.919852,0.649124,0.0196514,14
-0.939714,0.663632,0.060291,48
-2.41487,1.70603,0.258678,46
-2.0002,1.41413,0.300774,3
-1.61903,1.14549,0.31412,54
-1.44384,1.02192,0.343838,4
-2.18099,1.54423,-0.140051,3
-1.90193,1.34714,0.538083,1
-2.18148,1.54572,-0.0466677,4
-1.91493,1.35735,0.62893,1
-0.927359,0.659283,0.0198608,28
-0.934136,0.664593,0.0600817,55
-2.20572,1.57042,0.236889,11
-1.99525,1.4211,0.300774,4
-1.61663,1.15228,0.314433,55
-2.14622,1.53032,-0.230614,3
-1.44488,1.03062,0.344983,4
-2.16231,1.54293,-0.139214,9
-1.91601,1.36769,0.543482,1
-2.17444,1.55216,-0.0466328,10
-0.931672,0.667011,0.0200005,36
-0.927057,0.664197,0.0597677,60
-0.400577,0.286997,-0.0957861,27
-0.950591,0.681309,0.102321,1
-1.8205,1.30527,-0.354793,1
-2.00343,1.43696,0.302723,4
-0.941916,0.675838,-0.142343,4
-1.61922,1.16224,0.315685,57
-2.15273,1.54519,-0.231834,7
-1.44801,1.03974,0.346509,3
-2.14772,1.54272,-0.138586,13
-1.89905,1.3646,0.539883,1
-2.15467,1.54886,-0.0463187,16
-0.926094,0.66792,0.0199306,40
-0.918255,0.662753,0.059349,58
-0.485537,0.350438,-0.116393,21
-0.957899,0.691622,0.103367,1
-1.81913,1.31393,-0.355419,3
-2.00806,1.45092,0.304186,5
-0.955639,0.690751,-0.144781,6
-1.62476,1.17483,0.317562,53
-2.13602,1.54452,-0.230614,11
-1.44596,1.04593,0.346891,2
-2.13585,1.54553,-0.138167,21
-1.88164,1.36208,0.536283,1
-2.13144,1.54347,-0.0459347,21
-0.930228,0.67585,0.0200703,42
-0.919166,0.668304,0.0595583,65
-0.900696,0.655115,0.0974401,1
-1.80815,1.31562,-0.354168,9
-2.00619,1.46026,0.304673,6
-0.959641,0.698757,-0.145756,4
-1.61266,1.17468,0.315998,51
-2.1274,1.54962,-0.230265,12
-1.45182,1.05791,0.34918,1
-2.11269,1.54003,-0.137016,23
-2.03072,1.48137,-0.0438754,13
-0.921408,0.674369,0.0199306,40
-0.923273,0.676229,0.059977,65
-0.911262,0.667675,0.0988346,1
-1.78442,1.30791,-0.350413,21
-1.99148,1.46021,0.303211,7
-0.961998,0.705624,-0.146487,1
-1.61492,1.18498,0.317249,50
-2.10913,1.54761,-0.228871,12
-1.4228,1.04439,0.343075,2
-2.03164,1.49184,-0.132096,14
-2.00781,1.47542,-0.0434914,22
-0.91422,0.674021,0.0198259,39
-0.917693,0.677076,0.0597677,60
-1.60034,1.18074,-0.386579,1
-0.908925,0.670852,0.0988346,1
-1.76555,1.30358,-0.347597,28
-1.99435,1.47305,0.30443,7
-0.953143,0.704259,-0.145512,1
-1.62031,1.19765,0.319126,34
-0.935694,0.69162,-0.101798,2
-1.42546,1.05402,0.344601,3
-2.01196,1.48823,-0.131154,32
-2.00586,1.4848,-0.0435612,31
-0.918283,0.681977,0.0199656,36
-0.910515,0.676701,0.0594537,63
-1.61197,1.19803,-0.390395,1
-0.906578,0.674021,0.0988346,1
-1.76574,1.31327,-0.348536,27
-1.98761,1.47882,0.304186,7
-1.89817,1.41279,-0.290537,3
-1.63038,1.21392,0.321942,16
-0.974824,0.725818,-0.10633,2
-1.42492,1.06133,0.345364,3
-1.98434,1.47854,-0.129689,37
-1.99425,1.48701,-0.0434216,39
-0.917499,0.686376,0.0200005,36
-0.901869,0.67493,0.059035,63
-1.59677,1.19541,-0.387724,2
-0.907409,0.67957,0.0991832,1
-1.75166,1.31232,-0.346659,28
-1.98402,1.48694,0.30443,7
-1.91413,1.43456,-0.293705,9
-1.6137,1.20984,0.319439,22
-0.991412,0.743561,-0.108422,4
-1.43377,1.07572,0.348417,3
-1.98395,1.48905,-0.130003,43
-1.97812,1.48521,-0.0431773,45
-1.54313,1.15903,0.51712,1
-0.513903,0.386972,-0.172373,12
-0.915217,0.689415,0.0200005,32
-0.907602,0.683927,0.0595583,65
-1.61632,1.21843,-0.393448,1
-0.895606,0.675378,0.0981374,1
-1.74099,1.31336,-0.345407,33
-1.99492,1.50547,0.306867,9
-1.93154,1.45764,-0.297118,12
-1.60652,1.2128,0.318813,43
-0.980991,0.740841,-0.10755,6
-1.4396,1.08757,0.350707,3
-1.97104,1.4896,-0.129479,44
-1.9668,1.48694,-0.0430376,46
-0.675792,0.512396,-0.227243,5
-0.908147,0.688821,0.0198957,30
-0.903618,0.685883,0.0594537,69
-1.66231,1.26176,-0.40566,1
-0.885428,0.672319,0.0972658,1
-1.72404,1.30957,-0.342904,38
-1.98834,1.51087,0.306623,9
-1.93118,1.46797,-0.297849,18
-1.60542,1.22079,0.319439,48
-0.98157,0.746674,-0.107899,8
-1.42661,1.08521,0.348417,3
-1.9645,1.49492,-0.129375,47
-1.95842,1.49137,-0.0429678,45
-0.900969,0.688345,0.019791,28
-0.898045,0.686607,0.0592443,65
-1.62649,1.24399,-0.398028,1
-0.897199,0.686457,0.0988346,1
-1.70982,1.30867,-0.341027,36
-1.97202,1.50936,0.304917,9
-1.93866,1.48436,-0.299799,27
-1.59488,1.22159,0.318188,40
-0.99161,0.75979,-0.109293,12
-1.41639,1.08565,0.346891,4
-1.95108,1.49604,-0.128851,48
-1.95955,1.50307,-0.0431074,47
-0.904779,0.696522,0.0199306,27
-1.6891,1.30078,-0.492193,1
-0.898687,0.692332,0.0594537,69
-1.63924,1.26284,-0.402225,2
-0.90111,0.694449,0.0995319,1
-1.70367,1.31343,-0.340714,40
-1.96176,1.51294,0.304186,8
-1.93478,1.49267,-0.300042,36
-1.58414,1.22259,0.316936,39
-0.98251,0.758549,-0.108596,12
-1.43124,1.10499,0.35147,3
-1.93162,1.49185,-0.127909,47
-1.94928,1.50657,-0.0430027,42
-1.42744,1.10683,-0.483992,1
-0.913404,0.708253,0.020175,24
-1.65991,1.28756,-0.484994,1
-0.891531,0.691791,0.0591396,74
-1.63925,1.27245,-0.40337,3
-0.900132,0.698969,0.0997062,1
-1.69417,1.31603,-0.339776,42
-1.97371,1.53317,0.306867,9
-1.92642,1.49698,-0.299555,48
-1.56114,1.21357,0.313182,34
-0.987721,0.768089,-0.109468,14
-1.43802,1.11866,0.354142,4
-1.92772,1.50015,-0.128014,48
-1.9377,1.50845,-0.0428631,41
-1.38398,1.08089,-0.470533,1
-0.912378,0.712827,0.0202099,21
-1.66439,1.30083,-0.487694,1
-0.88439,0.691209,0.0588256,67
-1.64408,1.28542,-0.40566,10
-0.905533,0.708244,0.100578,2
-1.68957,1.32193,-0.339776,43
-1.96964,1.54162,0.307111,9
-1.92274,1.50492,-0.299799,48
-1.54757,1.2117,0.311305,34
-0.972485,0.761704,-0.108073,14
-1.42947,1.12004,0.352997,5
-1.92247,1.50687,-0.128014,45
-1.9277,1.51151,-0.0427584,25
-1.36216,1.07115,-0.464321,1
-0.906865,0.713376,0.0201401,15
-1.65701,1.30394,-0.486794,1
-0.889941,0.700314,0.059349,67
-1.65061,1.29937,-0.408331,14
-0.895353,0.70508,0.0997062,2
-1.67586,1.32019,-0.337898,41
-1.96608,1.54937,0.307355,9
-1.91618,1.51006,-0.299555,45
-1.53889,1.21316,0.310366,35
-0.976212,0.769859,-0.10877,14
-1.43808,1.13451,0.35605,5
-1.91903,1.51447,-0.128118,43
-1.37375,1.08765,-0.469498,1
-0.90136,0.713896,0.0200703,13
-1.62824,1.29006,-0.479596,1
-0.893752,0.708379,0.0597677,74
-1.65091,1.30849,-0.409476,12
-0.89301,0.708045,0.0997062,2
-1.67147,1.32574,-0.337898,42
-1.94849,1.54601,0.305405,9
-1.5331,1.2173,0.310053,40
-0.984439,0.781937,-0.109991,18
-1.41586,1.12462,0.35147,5
-1.01894,0.810213,-0.022723,3
-1.33049,1.06135,-0.456039,1
-0.914494,0.729509,0.0204193,12
-1.63286,1.30303,-0.482295,1
-0.874103,0.697787,0.0586163,67
-1.63996,1.30963,-0.40795,8
-0.895079,0.715044,0.100229,2
-1.66197,1.32816,-0.33696,40
-1.95549,1.56272,0.307355,12
-1.00629,0.804462,-0.158186,1
-1.52421,1.21894,0.309115,35
-0.989483,0.791591,-0.110862,20
-1.43473,1.1482,0.357194,6
-1.00722,0.806355,-0.0676181,4
-1.02391,0.820015,-0.0228976,10
-1.33882,1.07567,-0.46018,1
-0.925843,0.74413,0.0207335,10
-1.61593,1.29924,-0.478696,1
-0.87154,0.700987,0.0586163,72
-1.07088,0.861315,-0.267133,3
-0.895682,0.720662,0.100578,2
-1.64502,1.32405,-0.334457,9
-1.95748,1.5761,0.308573,14
-1.00179,0.8069,-0.157943,4
-1.50743,1.2146,0.306612,31
-0.999125,0.805041,-0.112257,24
-1.43988,1.16059,0.359484,6
-1.00595,0.811119,-0.0677227,11
-1.01934,0.822506,-0.0228627,16
-1.31704,1.06576,-0.453969,1
-0.927902,0.751132,0.0208382,9
-1.60532,1.29997,-0.476896,2
-0.87064,0.705282,0.058721,68
-0.993113,0.804494,-0.248433,1
-0.888518,0.720021,0.100055,4
-0.980549,0.794883,-0.199923,2
-1.94888,1.58042,0.308086,10
-0.995884,0.80789,-0.157455,13
-1.49244,1.21114,0.304422,26
-0.980838,0.795969,-0.110513,30
-1.43734,1.16685,0.359866,7
-1.00001,0.812108,-0.0675134,9
-1.00715,0.818493,-0.0226532,21
-1.33428,1.08743,-0.461216,1
-0.928374,0.756894,0.020908,10
-1.62041,1.32157,-0.482745,2
-0.866748,0.706903,0.0586163,65
-0.970524,0.791822,-0.243472,2
-0.875194,0.7143,0.0988346,5
-0.983889,0.803298,-0.201175,9
-1.94489,1.58847,0.308329,14
-1.00689,0.822666,-0.159649,22
-1.48689,1.21484,0.304109,18
-0.979597,0.800649,-0.110688,38
-1.43934,1.17683,0.361392,8
-1.01572,0.830767,-0.0687694,9
-1.00908,0.825627,-0.0227579,30
-1.33047,1.09208,-0.461216,1
-0.928951,0.762506,0.0209778,10
-1.60547,1.31828,-0.479596,2
-0.879709,0.722601,0.059663,69
-0.972304,0.798944,-0.244617,6
-0.883469,0.726206,0.100055,5
-0.990375,0.814083,-0.203052,15
-1.93194,1.58861,0.307111,10
-1.00416,0.826,-0.159649,27
-1.48416,1.22127,0.304422,9
-0.987564,0.812927,-0.111908,44
-1.42937,1.1766,0.359866,9
-1.03609,0.853175,-0.0703395,40
-1.00465,0.827872,-0.022723,42
-1.32982,1.09895,-0.462251,1
-0.938613,0.775937,0.021257,9
-1.58885,1.31394,-0.475996,1
-0.868073,0.717877,0.059035,69
-0.986289,0.815929,-0.248815,11
-0.881056,0.729132,0.100055,5
-0.981441,0.812496,-0.2018,22
-1.92639,1.59534,0.307111,12
-0.98904,0.819369,-0.157699,33
-1.5014,1.24383,0.308802,7
-0.998669,0.82764,-0.113477,66
-1.42525,1.18159,0.359866,10
-1.00082,0.830012,-0.0681414,100
-1.36781,1.13477,0.410311,1
-1.00651,0.83503,-0.0228277,51
-1.29331,1.0764,-0.450863,1
-0.948331,0.789279,0.0215363,10
-1.59347,1.32669,-0.478696,1
-0.85175,0.709399,0.0580929,64
-0.97891,0.815597,-0.24767,15
-0.886158,0.738581,0.100926,8
-0.989364,0.824599,-0.203991,28
-1.93481,1.61316,0.309304,15
-0.989367,0.825188,-0.158186,43
-1.52587,1.27311,0.314746,5
-0.998833,0.833674,-0.113825,100
-1.42585,1.19008,0.361011,11
-1.28926,1.07684,0.387816,1
-0.994385,0.830845,-0.0226183,33
-1.28973,1.08068,-0.450863,1
-0.965493,0.809284,0.02199,10
-1.60077,1.34226,-0.482295,1
-0.863167,0.723769,0.059035,72
-0.973192,0.816315,-0.246907,20
-0.874546,0.733832,0.0998805,9
-0.987992,0.829318,-0.204303,34
-1.92764,1.61863,0.309061,10
-0.98952,0.831189,-0.158674,75
-1.56701,1.31628,0.324132,3
-0.980809,0.824164,-0.112082,91
-1.42018,1.19379,0.360629,15
-1.27953,1.07632,0.386016,1
-0.999276,0.840574,-0.0227928,18
-1.28595,1.08518,-0.450863,1
-0.947521,0.799584,0.021641,10
-1.59929,1.35007,-0.483195,2
-0.854531,0.721623,0.0586163,67
-0.973336,0.822241,-0.24767,27
-0.865892,0.731736,0.0991832,9
-0.979201,0.827489,-0.203052,53
-1.92227,1.62502,0.309061,9
-0.985243,0.833184,-0.15843,100
-1.6167,1.36767,0.335396,3
-0.961197,0.813425,-0.110165,100
-1.41022,1.19342,0.359103,21
-1.25811,1.06544,0.380617,2
-0.996335,0.844057,-0.0227928,12
-1.28216,1.08966,-0.450863,1
-0.944584,0.803052,0.021641,10
-1.5884,1.35087,-0.481395,2
-0.870135,0.740281,0.0598723,72
-0.970316,0.825803,-0.24767,41
-0.858781,0.73088,0.0986603,11
-0.97165,0.827231,-0.202113,81
-1.91327,1.62948,0.308573,9
-0.976138,0.83164,-0.157455,75
-1.60717,1.36974,0.334457,3
-0.96579,0.823406,-0.111036,56
-1.39816,1.19245,0.357194,24
-1.60145,1.36632,-0.110324,12
-1.26012,1.0751,0.382417,2
-0.996277,0.8503,-0.0228627,4
-1.28696,1.10189,-0.453969,1
-0.961379,0.823419,0.0220947,11
-1.57455,1.34908,-0.478696,1
-0.847702,0.726568,0.0585116,64
-0.968773,0.830632,-0.248052,57
-0.869709,0.745694,0.100229,12
-0.959615,0.823071,-0.200236,78
-1.90428,1.63389,0.308086,9
-0.965552,0.828748,-0.156237,34
-1.61862,1.38978,0.337898,2
-0.962766,0.82694,-0.111036,28
-1.39378,1.19757,0.357194,27
-1.59947,1.37479,-0.110534,28
-1.25322,1.07718,0.381517,3
-1.01438,0.872198,-0.0233513,20
-1.27414,1.09903,-0.450863,1
-0.961382,0.82955,0.0221646,11
-1.55485,1.34211,-0.474197,1
-0.85272,0.736048,0.059035,69
-0.958438,0.827593,-0.246144,55
-0.873002,0.754086,0.100926,11
-0.96257,0.831748,-0.201488,42
-1.91179,1.65254,0.310279,9
-0.962653,0.832114,-0.156237,19
-1.62422,1.40446,0.340089,1
-0.968914,0.838116,-0.112082,18
-1.38811,1.20114,0.356813,32
-1.58862,1.37513,-0.110115,45
-1.24208,1.07517,0.379267,3
-1.5888,1.37578,-0.036685,21
-1.25298,1.08805,-0.444651,1
-0.963155,0.836668,0.0222693,10
-1.55333,1.34981,-0.475097,1
-0.851782,0.740182,0.0591396,65
-0.95717,0.832055,-0.246525,28
-0.867489,0.754362,0.100578,13
-0.961297,0.836232,-0.2018,19
-1.91379,1.66539,0.311498,9
-0.970371,0.844423,-0.157943,13
-1.6419,1.4293,0.344782,1
-0.949602,0.826932,-0.110165,14
-1.38708,1.20832,0.357576,41
-1.58405,1.38039,-0.110115,43
-1.24439,1.0844,0.381067,3
-1.58574,1.38235,-0.0367199,25
-1.24064,1.08457,-0.441545,1
-0.949838,0.830642,0.0220249,9
-1.55765,1.36266,-0.477796,1
-0.855205,0.748412,0.0595583,65
-0.954405,0.835225,-0.246525,17
-0.858986,0.751986,0.0998805,15
-0.962977,0.84332,-0.202739,13
-1.90377,1.6678,0.310767,9
-0.971896,0.85173,-0.158674,10
-1.68741,1.4793,0.355419,1
-0.949851,0.832703,-0.110513,14
-1.37125,1.20256,0.354523,46
-1.57646,1.383,-0.109906,36
-1.23766,1.08617,0.380167,3
-1.5779,1.38524,-0.0366501,31
-1.24265,1.094,-0.443616,1
-0.951435,0.837918,0.0221297,6
-1.52948,1.34747,-0.470598,1
-0.855585,0.754034,0.0597677,67
-0.952957,0.839849,-0.246907,12
-0.862334,0.76025,0.100578,16
-0.949657,0.83753,-0.200549,11
-1.89199,1.66918,0.309792,9
-0.965941,0.85249,-0.158186,4
-1.67631,1.47995,0.354168,1
-0.93947,0.829421,-0.109642,12
-1.34939,1.19174,0.349944,48
-1.56414,1.38189,-0.109382,28
-1.24117,1.09693,0.382417,5
-1.57605,1.39339,-0.0367199,44
-1.23304,1.0932,-0.441545,1
-0.957481,0.849195,0.0223391,3
-1.51894,1.34763,-0.468798,1
-0.844115,0.748914,0.0591396,65
-0.955893,0.848383,-0.248433,10
-0.861165,0.764578,0.100752,16
-0.949682,0.843463,-0.201175,5
-1.88318,1.67314,0.309304,9
-0.974829,0.866407,-0.160136,1
-1.63891,1.45663,0.347285,1
-0.939547,0.835343,-0.109991,12
-1.33789,1.18992,0.348036,46
-1.55632,1.38468,-0.109173,26
-1.22423,1.0896,0.378368,3
-1.56545,1.39329,-0.0365802,37
-1.22921,1.0975,-0.441545,1
-0.950184,0.84837,0.0222344,2
-1.51737,1.35526,-0.469698,1
-0.842985,0.753187,0.0592443,63
-0.951462,0.850406,-0.248052,3
-0.865918,0.774219,0.101624,15
-0.939516,0.840024,-0.19961,1
-1.8865,1.68732,0.310767,9
-1.64507,1.47189,-0.271037,7
-1.63234,1.46102,0.346972,3
-0.933657,0.835959,-0.109642,12
-1.33247,1.19304,0.347654,45
-1.54577,1.38451,-0.108754,25
-1.2119,1.08585,0.375668,3
-1.54866,1.38807,-0.036301,33
-1.21407,1.09124,-0.437404,1
-0.950191,0.854355,0.0223042,2
-1.51263,1.36054,-0.469698,1
-0.841836,0.75746,0.059349,65
-0.93842,0.844365,-0.24538,2
-0.852979,0.767756,0.100403,16
-1.68232,1.51477,-0.358548,9
-1.8865,1.69921,0.311742,9
-1.62812,1.467,-0.269088,9
-1.61109,1.45216,0.34353,3
-0.923335,0.832542,-0.10877,14
-1.3283,1.19768,0.347654,44
-1.54389,1.39257,-0.108963,28
-1.20955,1.09138,0.376118,5
-1.53935,1.38945,-0.0361963,26
-1.21007,1.09568,-0.437404,1
-0.947203,0.857667,0.0223042,2
-1.4992,1.35797,-0.466998,1
-0.845107,0.765759,0.0597677,67
-1.56953,1.42267,-0.411766,6
-0.85016,0.770878,0.100403,16
-1.64603,1.49305,-0.351978,12
-1.88203,1.70712,0.311986,7
-1.61417,1.46467,-0.267625,9
-1.55482,1.41131,0.33258,3
-0.921898,0.837099,-0.108945,14
-1.29338,1.17482,0.33964,25
-1.53434,1.39419,-0.108649,31
-1.21131,1.10105,0.377918,5
-1.53449,1.39481,-0.0361963,23
-1.2148,1.10771,-0.44051,1
-0.945531,0.862481,0.0223391,2
-1.4971,1.36608,-0.467898,1
-0.843904,0.77005,0.0598723,62
-1.56311,1.42681,-0.411384,9
-0.851877,0.777871,0.100926,16
-1.61455,1.47481,-0.346346,13
-1.19726,1.09402,0.199135,1
-1.60586,1.46789,-0.267138,10
-1.28598,1.1755,0.27595,3
-0.9175,0.838968,-0.10877,14
-1.21829,1.1144,0.320941,7
-1.5221,1.39279,-0.108126,32
-1.20171,1.10001,0.376118,6
-1.53256,1.40286,-0.0362661,42
-1.21092,1.11194,-0.44051,1
-0.952976,0.875079,0.0225834,2
-1.48682,1.36576,-0.466099,1
-0.830916,0.763532,0.0591396,58
-1.55812,1.43226,-0.411384,9
-0.855023,0.786234,0.101624,17
-1.6082,1.47882,-0.346033,14
-1.17609,1.08185,0.19621,2
-1.58199,1.45574,-0.263969,12
-1.21502,1.11844,0.261558,3
-0.911634,0.839466,-0.108422,14
-1.19726,1.10248,0.316361,12
-1.50572,1.38701,-0.107289,32
-1.18802,1.09474,0.372969,8
-1.51737,1.39871,-0.0360218,44
-1.21858,1.12644,-0.444651,1
-0.969002,0.89605,0.0230372,2
-1.48204,1.37094,-0.466099,1
-0.828246,0.766427,0.0591396,60
-1.54183,1.42675,-0.408331,11
-0.862646,0.798539,0.102844,17
-1.59723,1.47905,-0.344782,15
-1.17814,1.09135,0.197185,2
-1.5769,1.46125,-0.263969,13
-1.18068,1.09447,0.254988,8
-0.908846,0.842485,-0.108422,14
-1.1862,1.09998,0.314453,32
-1.50087,1.39226,-0.107289,33
-1.16991,1.08563,0.36847,7
-1.50368,1.39584,-0.0358123,40
-1.2005,1.11753,-0.439475,1
-0.967332,0.900789,0.0230721,2
-1.46584,1.36548,-0.462499,1
-0.829949,0.773399,0.0594537,57
-1.52679,1.42276,-0.40566,10
-0.851109,0.793394,0.101798,19
-1.58484,1.47788,-0.343217,16
-1.17867,1.09952,0.197916,8
-1.56889,1.46404,-0.263482,14
-1.17541,1.09724,0.254675,26
-0.90153,0.841573,-0.107899,17
-1.18236,1.10411,0.314453,48
-1.49892,1.40021,-0.107498,33
-1.17466,1.09769,0.371169,7
-1.49296,1.39562,-0.0356727,25
-1.1825,1.1085,-0.434298,2
-0.974392,0.913735,0.0233164,2
-1.46106,1.37059,-0.462499,1
-0.831614,0.780391,0.0597677,58
-1.52181,1.42808,-0.40566,12
-0.865766,0.812724,0.10389,26
-1.56671,1.47124,-0.340401,17
-1.16904,1.09819,0.196941,26
-1.56522,1.47086,-0.263725,11
-1.16869,1.09863,0.25405,42
-0.902942,0.848809,-0.108422,17
-1.17134,1.1015,0.312545,56
-1.48384,1.39586,-0.106765,34
-1.16372,1.0951,0.36892,12
-1.46915,1.383,-0.035219,28
-1.18143,1.11527,-0.435334,1
-0.947934,0.895164,0.0227579,3
-1.43927,1.35962,-0.457101,1
-0.834691,0.788776,0.0601864,58
-1.51539,1.43203,-0.405278,11
-0.88609,0.83764,0.106679,30
-1.55726,1.47262,-0.339463,18
-1.15366,1.09135,0.194991,51
-1.55863,1.47495,-0.263482,11
-1.16198,1.09999,0.253424,44
-0.891292,0.843737,-0.107376,17
-1.14896,1.08804,0.307584,54
-1.46156,1.38455,-0.105509,36
-1.15848,1.09782,0.36847,32
-1.4527,1.37712,-0.0349397,18
-1.18593,1.12737,-0.438439,1
-0.973786,0.926028,0.023456,3
-1.42887,1.35927,-0.455301,1
-0.824699,0.784801,0.059663,57
-1.50754,1.43461,-0.404515,12
-0.930782,0.886062,0.112431,50
-1.5378,1.46443,-0.336334,18
-1.15128,1.09674,0.195235,58
-1.54054,1.46806,-0.261288,10
-1.15814,1.10404,0.253424,45
-0.898437,0.856466,-0.108596,19
-1.13805,1.08527,0.305676,55
-1.4336,1.36758,-0.103835,39
-1.14618,1.09378,0.36577,46
-1.3582,1.29657,-0.0327756,21
-1.17362,1.12349,-0.435334,2
-0.990767,0.948784,0.0239447,3
-1.39034,1.33189,-0.444503,1
-0.81907,0.784911,0.0594537,57
-1.48551,1.42356,-0.399936,12
-0.894603,0.857593,0.108422,26
-1.517,1.45475,-0.332893,17
-1.14458,1.098,0.194747,58
-1.51965,1.45831,-0.258607,10
-1.14715,1.10123,0.25186,46
-0.898316,0.862357,-0.108945,17
-1.13709,1.09195,0.306439,56
-1.35392,1.30063,-0.0983916,19
-1.13673,1.09238,0.363971,57
-1.1677,1.12253,-0.0282729,36
-1.32145,1.27077,0.491239,1
-1.14743,1.10613,-0.427051,1
-0.993207,0.957789,0.0240843,4
-1.36184,1.31374,-0.436855,2
-0.826386,0.797474,0.0601864,58
-1.46217,1.41101,-0.394975,15
-0.913106,0.881468,0.111036,38
-1.48633,1.43533,-0.327261,18
-1.14646,1.10751,0.195722,57
-1.50313,1.45257,-0.256657,11
-1.12768,1.09013,0.248418,50
-0.891003,0.861333,-0.108422,17
-1.13891,1.10137,0.307966,60
-1.15988,1.12204,-0.0845749,41
-1.12731,1.09092,0.362171,51
-1.14223,1.10573,-0.0277493,52
-1.10884,1.07379,0.413593,1
-1.14634,1.11282,-0.428087,1
-0.998465,0.969609,0.0242938,6
-1.29994,1.26281,-0.418409,3
-0.826462,0.803137,0.0603957,54
-1.43189,1.39148,-0.388106,16
-0.901451,0.876317,0.109991,26
-1.42467,1.38543,-0.314746,15
-1.13405,1.1032,0.19426,61
-1.28892,1.2543,-0.220827,7
-1.12528,1.09543,0.248731,49
-0.905122,0.881115,-0.110513,16
-1.12522,1.09576,0.305294,52
-1.15167,1.1219,-0.0842609,57
-1.10954,1.08124,0.357672,51
-1.13693,1.10832,-0.0277144,55
-1.15487,1.12621,0.432228,1
-1.14797,1.12222,-0.430157,1
-1.00079,0.978681,0.0244334,9
-1.24398,1.21692,-0.401763,3
-0.83236,0.814254,0.0610237,53
-1.39896,1.36901,-0.380473,20
-0.939676,0.919877,0.115046,67
-1.18413,1.15958,-0.262497,12
-1.12026,1.09742,0.192554,66
-1.12716,1.10457,-0.193772,12
-1.12587,1.10331,0.249669,44
-0.941879,0.923322,-0.115394,18
-1.09756,1.07631,0.298807,51
-1.13063,1.10913,-0.0830048,66
-1.09602,1.07556,0.354523,56
-1.13325,1.11208,-0.0277144,55
-1.1015,1.08131,0.413593,1
-1.13579,1.11808,-0.427051,1
-1.00609,0.990411,0.0246428,10
-1.1719,1.15404,-0.379717,4
-0.820976,0.808744,0.0603957,53
-1.19561,1.1782,-0.326283,16
-0.923689,0.910563,0.113477,27
-1.13385,1.11774,-0.252172,32
-1.11803,1.10253,0.192797,56
-1.07968,1.06508,-0.186216,12
-1.10796,1.09336,0.246541,44
-0.988277,0.975594,-0.121495,16
-1.10097,1.08684,0.300715,58
-1.12553,1.11147,-0.0829002,64
-1.08275,1.0696,0.351374,66
-1.12225,1.109,-0.0275399,56
-1.11146,1.09873,0.418769,1
-1.13207,1.12185,-0.427051,1
-1.00831,0.999549,0.0247824,13
-1.14158,1.13205,-0.371169,11
-0.814035,0.807243,0.0600817,51
-1.12479,1.1158,-0.307966,34
-0.948949,0.941689,0.116963,50
-1.12994,1.12169,-0.252172,47
-1.10291,1.09523,0.190847,52
-1.00554,0.998893,-0.174029,10
-1.0833,1.07614,0.241848,47
-1.0769,1.07015,-0.132825,21
-1.07907,1.07268,0.295754,55
-1.11881,1.11258,-0.0826908,64
-1.07486,1.06925,0.350024,60
-1.11006,1.10426,-0.0273305,60
-1.08864,1.08333,0.411522,1
-1.12268,1.12033,-0.424981,1
-1.0064,1.0043,0.0248173,14
-1.11851,1.11656,-0.364871,38
-0.822518,0.82137,0.0609191,49
-1.11117,1.11,-0.305294,48
-0.927335,0.926688,0.114697,22
-1.12202,1.12124,-0.251234,49
-1.08663,1.08625,0.188654,57
-0.995204,0.995204,-0.172811,13
-1.07814,1.07852,0.241535,51
-1.09146,1.09223,-0.135091,35
-1.07689,1.07764,0.296136,54
-1.1137,1.11487,-0.0825861,74
-1.06993,1.07143,0.349574,63
-1.10054,1.10247,-0.0271908,62
-1.07121,1.07345,0.406346,1
-0.995666,1.00089,0.0246428,16
-1.12128,1.12756,-0.36712,69
-0.823726,0.828629,0.0612331,47
-1.11282,1.11944,-0.306821,50
-0.971844,0.97797,0.120624,56
-1.10677,1.11413,-0.248731,56
-1.07985,1.08741,0.188166,65
-0.991549,0.998845,-0.172811,13
-1.06862,1.07686,0.240283,51
-1.09185,1.10027,-0.135614,55
-1.06187,1.07043,0.293083,54
-1.10961,1.11894,-0.0825861,82
-1.06874,1.07811,0.350474,66
-1.10635,1.11643,-0.0274352,51
-1.04279,1.05267,0.397028,1
-0.98795,1.00009,0.0245381,22
-1.10638,1.12037,-0.363521,80
-0.833457,0.844291,0.0621751,48
-1.09925,1.11354,-0.30415,49
-0.978221,0.991283,0.121844,32
-1.09039,1.10533,-0.245915,52
-1.06768,1.08269,0.186704,62
-0.954611,0.968371,-0.166961,9
-1.0704,1.08621,0.241535,51
-1.0936,1.10975,-0.136312,78
-1.04711,1.06294,0.29003,54
-1.08748,1.10431,-0.0812254,59
-1.06771,1.08461,0.351374,71
-1.11366,1.13169,-0.0277144,40
-1.0513,1.0687,0.401687,2
-0.990055,1.00925,0.0246777,27
-1.08745,1.10892,-0.358572,73
-0.812329,0.828654,0.0608144,42
-1.09673,1.11877,-0.304531,50
-0.991489,1.01177,0.123935,60
-1.07823,1.10067,-0.244038,30
-1.05556,1.0779,0.185241,63
-0.87346,0.892259,-0.153312,9
-1.06107,1.08429,0.240283,52
-1.09111,1.11499,-0.136486,73
-1.04614,1.0694,0.290793,58
-1.08641,1.11095,-0.0814348,52
-1.06119,1.08555,0.350474,56
-1.08176,1.10697,-0.0270163,36
-1.04757,1.07236,0.401687,2
-1.03952,1.06672,-0.399099,1
-0.983735,1.00983,0.0246079,29
-1.09173,1.12109,-0.361271,76
-0.81779,0.840071,0.0614424,45
-1.08597,1.11556,-0.302623,55
-1.01157,1.0395,0.126899,37
-1.03719,1.06619,-0.23559,13
-1.04902,1.07874,0.184754,62
-0.84405,0.868259,-0.148681,11
-1.05453,1.08515,0.239658,52
-1.0886,1.12022,-0.13666,60
-1.05197,1.0829,0.293464,50
-1.06583,1.09755,-0.0801787,52
-1.05604,1.08784,0.350024,46
-1.05282,1.08491,-0.026388,41
-1.03844,1.07046,0.399617,3
-1.03579,1.07034,-0.399099,1
-0.988546,1.02188,0.0248173,28
-1.07833,1.11509,-0.358122,83
-0.828734,0.857281,0.0624891,45
-1.07116,1.10805,-0.29957,55
-1.0204,1.05592,0.128468,48
-1.03346,1.06981,-0.23559,20
-1.05077,1.0881,0.185729,66
-0.839636,0.869772,-0.148437,13
-1.04936,1.08741,0.239345,47
-1.07639,1.11541,-0.135614,65
-1.05773,1.09646,0.296136,36
-1.05783,1.09695,-0.0798647,66
-1.07387,1.11397,0.357222,43
-1.04764,1.08714,-0.0263531,31
-1.04006,1.07965,0.401687,5
-1.00259,1.04331,-0.387711,1
-0.998826,1.03975,0.0251664,25
-1.07713,1.12165,-0.359022,83
-0.82712,0.861609,0.0625938,42
-1.04009,1.08346,-0.291938,20
-1.01671,1.05947,0.128468,56
-1.01741,1.06058,-0.232775,25
-1.04696,1.09176,0.185729,63
-0.839342,0.875563,-0.148924,17
-1.04966,1.09534,0.240283,33
-1.04905,1.09471,-0.132651,73
-1.05254,1.09873,0.295754,32
-1.04847,1.09486,-0.079446,66
-1.08211,1.13038,0.361271,46
-1.03831,1.08501,-0.0262135,30
-1.03361,1.08048,0.400652,7
-1.00695,1.05519,-0.390817,1
-0.999332,1.04757,0.0252711,29
-1.05842,1.10989,-0.354073,45
-0.83115,0.871574,0.0631172,35
-1.02276,1.07287,-0.288122,16
-1.02537,1.076,0.130036,51
-1.00281,1.05268,-0.230272,20
-1.03904,1.0911,0.184998,42
-0.846016,0.888405,-0.150631,17
-1.05419,1.1074,0.242161,32
-1.0411,1.09403,-0.132128,81
-1.05681,1.11093,0.298044,28
-1.03638,1.08983,-0.078818,66
-1.08104,1.13679,0.362171,63
-1.04572,1.10004,-0.0264928,31
-1.03268,1.0867,0.401687,8
-1.02471,1.08095,-0.399099,1
-1.00823,1.06394,0.0255852,34
-1.01854,1.0752,-0.341926,23
-0.825508,0.871426,0.0629078,37
-1.02324,1.08054,-0.289266,31
-1.03139,1.08952,0.131257,33
-1.01425,1.07178,-0.233713,18
-1.04633,1.10608,0.186948,37
-0.836245,0.883995,-0.149412,22
-1.06273,1.12381,0.244976,24
-1.03336,1.09313,-0.131605,82
-1.07874,1.14154,0.305294,14
-1.03276,1.09326,-0.078818,66
-1.07325,1.13612,0.360821,67
-1.03932,1.10059,-0.0264229,50
-1.03305,1.09433,0.40324,10
-1.02112,1.08434,-0.399099,1
-1.0184,1.08184,0.0259343,42
-1.0083,1.07148,-0.339676,46
-0.822461,0.874302,0.0629078,32
-1.00889,1.07248,-0.286214,37
-1.04415,1.11035,0.133348,31
-1.01745,1.08234,-0.235277,40
-1.05217,1.11966,0.188654,33
-0.845386,0.89993,-0.151605,17
-1.05339,1.12175,0.243725,9
-1.02973,1.09655,-0.131605,78
-1.21604,1.2954,0.345364,5
-1.0223,1.0894,-0.0782946,70
-1.06661,1.13702,0.359922,48
-1.02043,1.08817,-0.026039,77
-1.03715,1.10639,0.406346,10
-1.00677,1.07661,-0.394958,1
-1.02145,1.09269,0.0261088,31
-0.996566,1.06645,-0.336977,55
-0.823495,0.881546,0.0632218,26
-1.0105,1.08174,-0.28774,29
-1.04298,1.1169,0.133697,33
-1.02041,1.0931,-0.236842,57
-1.0469,1.12188,0.18841,22
-0.865259,0.927552,-0.155749,17
-1.06968,1.14709,0.248418,2
-1.01367,1.08703,-0.130036,85
-1.25033,1.34129,0.356431,3
-1.02394,1.09881,-0.0787133,77
-1.07592,1.15499,0.364421,48
-1.0139,1.0888,-0.0259692,66
-1.03197,1.10859,0.405828,11
-0.99512,1.07163,-0.391852,2
-1.02035,1.09918,0.0261786,30
-1.01007,1.08849,-0.342825,39
-0.836712,0.901986,0.0644779,26
-1.00539,1.08382,-0.287358,37
-1.04314,1.12492,0.13422,37
-0.99644,1.07493,-0.232149,31
-0.941608,1.01649,-0.17013,16
-1.54348,1.6668,0.359799,2
-1.00697,1.08781,-0.129688,87
-1.24564,1.34564,0.356431,3
-1.01467,1.09651,-0.0782946,61
-1.07452,1.1616,0.365321,67
-1.02095,1.10407,-0.0262484,46
-1.03072,1.11502,0.406864,11
-1.00821,1.09373,-0.398581,2
-1.02464,1.11156,0.026388,29
-0.994379,1.07911,-0.338776,49
-0.840324,0.912247,0.0650013,23
-1.01337,1.10049,-0.290793,57
-1.04846,1.13899,0.13544,50
-0.889499,0.966645,-0.208058,12
-1.79044,1.94572,0.32466,29
-0.997186,1.08405,-0.180854,41
-1.54835,1.68381,0.362302,2
-1.00587,1.09425,-0.130036,96
-1.22742,1.33574,0.352615,3
-1.01875,1.10905,-0.0789226,46
-1.06894,1.1641,0.364871,68
-1.02521,1.11647,-0.0264578,36
-1.0242,1.11577,0.405828,12
-1.00699,1.1001,-0.399617,7
-1.02731,1.12268,0.0265626,24
-0.998309,1.09137,-0.341476,100
-0.837135,0.915174,0.0650013,19
-1.0029,1.09678,-0.288885,59
-1.0512,1.15,0.136312,45
-0.806169,0.882249,-0.189286,11
-1.78329,1.95227,0.32466,40
-1.00124,1.09649,-0.182317,56
-1.53713,1.68337,0.361051,2
-0.999353,1.09481,-0.129688,66
-1.22937,1.34727,0.354523,4
-1.01622,1.11407,-0.0790273,38
-1.06487,1.16782,0.364871,63
-1.03074,1.13038,-0.0267022,32
-1.03332,1.13361,0.411005,13
-1.00574,1.10646,-0.400652,17
-1.03165,1.13496,0.026772,6
-0.997306,1.09756,-0.342376,81
-0.829907,0.913656,0.0646873,10
-0.981912,1.08138,-0.283924,63
-1.06325,1.17136,0.138403,48
-0.789962,0.870291,-0.186157,18
-1.77014,1.95082,0.323441,48
-0.997596,1.09981,-0.182317,48
-1.54982,1.70921,0.365431,2
-1.01827,1.12339,-0.132651,53
-1.22753,1.35425,0.355286,4
-1.01788,1.12336,-0.079446,35
-1.05053,1.15979,0.361271,60
-1.0241,1.13101,-0.0266324,20
-1.03324,1.14151,0.412558,13
-0.983945,1.08972,-0.393405,32
-1.6668,1.84663,0.0434216,28
-0.98433,1.09091,-0.339226,79
-0.829388,0.919513,0.0648966,7
-0.969116,1.07442,-0.281252,67
-1.05402,1.16897,0.137706,43
-0.786919,0.873043,-0.186157,27
-1.76199,1.95552,0.323198,51
-1.01102,1.12246,-0.185485,41
-1.54252,1.71315,0.365118,3
-1.01968,1.13286,-0.133348,53
-1.22411,1.35999,0.355668,5
-1.02063,1.13433,-0.0799694,23
-1.03865,1.15476,0.358572,53
-1.51885,1.68923,-0.0396519,47
-1.02538,1.1408,0.411005,16
-0.978655,1.09188,-0.392887,42
-1.65367,1.84499,0.0432471,38
-0.979216,1.09289,-0.338776,85
-0.835501,0.932817,0.0656293,1
-0.963862,1.07651,-0.280871,43
-1.04574,1.16837,0.137183,47
-0.777128,0.86856,-0.184593,31
-1.75383,1.96017,0.322954,49
-1.02033,1.14078,-0.187923,41
-1.53127,1.71263,0.363867,3
-1.02368,1.14533,-0.134394,45
-1.2008,1.34397,0.350325,6
-1.29188,1.44641,-0.101636,5
-1.03441,1.15856,0.358572,46
-1.51428,1.69601,-0.0396868,49
-1.00467,1.12563,0.404275,15
-0.977406,1.09817,-0.393923,48
-1.63361,1.8361,0.042898,35
-0.966138,1.08628,-0.335627,79
-1.6459,1.85056,0.129793,48
-0.898787,1.01091,-0.262935,15
-1.04563,1.17648,0.137706,46
-0.76622,0.862407,-0.182715,22
-1.73213,1.95026,0.320273,45
-1.04139,1.17253,-0.192554,32
-1.54102,1.73569,0.367621,3
-1.18764,1.33814,-0.156532,23
-1.18568,1.3364,0.347272,7
-1.33188,1.50171,-0.105195,6
-1.04091,1.17364,0.362171,35
-1.5057,1.6983,-0.039617,49
-1.0097,1.13925,0.407899,21
-0.9712,1.09851,-0.392887,38
-1.62221,1.83551,0.0427584,38
-0.962531,1.08947,-0.335627,57
-1.61463,1.82757,0.127804,39
-0.779765,0.882915,-0.228971,12
-1.05754,1.19786,0.139798,45
-0.771199,0.87383,-0.184593,13
-1.71515,1.94409,0.318323,38
-1.24893,1.41564,-0.231796,28
-1.54832,1.75561,0.37075,3
-1.27148,1.44221,-0.168211,33
-1.19162,1.35211,0.350325,7
-1.31633,1.49413,-0.104358,6
-1.02928,1.16831,0.359472,27
-1.49741,1.70028,-0.0395472,52
-1.01102,1.1484,0.409969,26
-0.970102,1.10463,-0.393923,20
-1.61875,1.84389,0.0428282,37
-0.961483,1.09559,-0.336527,52
-1.60297,1.82719,0.127386,39
-0.763886,0.870738,-0.225155,17
-1.04963,1.19687,0.139275,41
-0.76439,0.871926,-0.183654,6
-1.28061,1.4618,-0.23862,30
-1.52266,1.73871,0.366057,3
-1.26906,1.44963,-0.168559,41
-1.17808,1.34571,0.347654,8
-1.3061,1.49248,-0.103939,6
-1.04573,1.19537,0.36667,30
-1.48094,1.69345,-0.0392679,49
-1.00574,1.15046,0.409452,28
-0.95716,1.09799,-0.390299,11
-1.60705,1.8435,0.0426886,38
-0.957653,1.09894,-0.336527,30
-1.59789,1.83428,0.12749,42
-0.75811,0.870571,-0.224391,38
-1.04654,1.20221,0.139449,38
-1.29674,1.49016,-0.312869,14
-1.10244,1.26687,0.206203,3
-1.2742,1.46476,-0.238376,33
-1.52954,1.75892,0.369185,3
-1.25615,1.44503,-0.167513,41
-1.17443,1.3515,0.348036,8
-1.29539,1.49122,-0.103521,6
-1.05156,1.21096,0.370269,30
-1.46977,1.69257,-0.0391283,50
-1.00171,1.15397,0.409452,36
-0.929299,1.07357,-0.380464,5
-1.58982,1.83728,0.0424093,39
-0.835054,0.965374,-0.294686,10
-1.58332,1.83106,0.126862,44
-0.751215,0.868756,-0.223247,61
-1.04364,1.20736,0.139624,40
-1.2812,1.48272,-0.310366,24
-1.0926,1.2649,0.205228,5
-1.26882,1.46942,-0.238376,34
-1.53212,1.77498,0.371375,3
-1.23677,1.43282,-0.165596,42
-1.16586,1.35114,0.346891,9
-1.28235,1.48666,-0.102893,6
-1.05624,1.22496,0.373419,33
-1.45834,1.69189,-0.0389887,47
-0.976041,1.13275,0.400652,36
-0.789547,0.918582,-0.324559,1
-1.57297,1.83068,0.0421301,35
-0.746606,0.869237,-0.264542,15
-1.57692,1.83658,0.126862,44
-0.743062,0.865415,-0.22172,60
-1.0485,1.22158,0.140844,34
-1.27731,1.48868,-0.310679,29
-1.06621,1.24309,0.201084,10
-1.25722,1.46631,-0.237158,37
-1.52463,1.77882,0.371063,3
-1.23566,1.44166,-0.166119,46
-1.16113,1.3552,0.346891,11
-1.26416,1.47596,-0.101846,6
-1.06463,1.24344,0.377918,40
-1.44982,1.69393,-0.0389189,45
-0.978361,1.14349,0.40324,37
-0.746204,0.87431,-0.307995,6
-1.56397,1.83312,0.0420603,36
-0.743568,0.871837,-0.264542,31
-1.56013,1.82991,0.126025,44
-0.742584,0.870991,-0.222483,15
-1.04423,1.22523,0.140844,37
-1.26442,1.48411,-0.308802,34
-1.06444,1.24982,0.201572,11
-1.2418,1.4586,-0.235208,37
-1.52738,1.79466,0.373253,3
-1.22674,1.44142,-0.165596,42
-1.16021,1.36373,0.348036,15
-1.24864,1.46819,-0.101008,6
-1.06281,1.25012,0.378818,40
-1.4452,1.7005,-0.0389538,29
-0.979366,1.15279,0.405311,51
-0.745646,0.879857,-0.30903,12
-1.56015,1.84162,0.0421301,35
-0.736742,0.869966,-0.263193,48
-1.54728,1.82772,0.125502,45
-0.739539,0.873578,-0.222483,5
-1.05153,1.24256,0.142412,33
-1.25923,1.48851,-0.308802,39
-1.06007,1.25353,0.201572,11
-1.23414,1.45989,-0.23472,39
-1.51473,1.79244,0.371688,3
-1.21656,1.4396,-0.164899,45
-1.15164,1.36327,0.346891,19
-1.24609,1.47559,-0.101218,6
-1.05718,1.25233,0.378368,38
-1.42507,1.68873,-0.0385698,13
-0.976582,1.15768,0.405828,60
-0.735107,0.873586,-0.305924,18
-1.54599,1.83787,0.0419207,31
-0.736209,0.875516,-0.264093,34
-1.52964,1.81909,0.12456,44
-0.759224,0.903206,-0.229352,6
-1.04334,1.24165,0.14189,30
-1.25275,1.49139,-0.308489,36
-1.06207,1.26483,0.202791,11
-1.22393,1.45811,-0.233745,39
-1.51893,1.80955,0.374191,3
-1.19616,1.42553,-0.162807,42
-1.15697,1.37932,0.349944,22
-1.23323,1.47075,-0.10059,6
-1.05656,1.26049,0.379717,36
-1.4156,1.68885,-0.0384651,7
-0.95909,1.14462,0.400134,62
-0.732053,0.876147,-0.305924,19
-1.52963,1.83071,0.0416414,23
-0.7358,0.880944,-0.264992,19
-1.53353,1.83668,0.125397,46
-1.25047,1.4982,-0.379328,10
-1.04028,1.24681,0.142064,31
-1.23514,1.48036,-0.30536,36
-1.06168,1.27291,0.203522,10
-1.21655,1.45911,-0.233258,37
-1.51261,1.81484,0.374191,3
-1.18862,1.42663,-0.162458,42
-1.14737,1.37711,0.348417,22
-1.22323,1.46869,-0.100171,7
-1.0611,1.27447,0.382867,38
-1.4097,1.69378,-0.0384651,2
-0.945204,1.13608,0.395993,63
-0.72791,0.877083,-0.305406,13
-1.53344,1.84835,0.0419207,5
-0.726501,0.876007,-0.262743,8
-1.51468,1.82638,0.12435,44
-1.24549,1.50233,-0.379328,12
-1.03995,1.25486,0.142587,29
-1.22745,1.48162,-0.304734,36
-1.04584,1.26285,0.201328,10
-1.20892,1.46029,-0.23277,39
-1.5091,1.82289,0.374817,3
-1.17881,1.42443,-0.161761,42
-1.1388,1.37657,0.347272,26
-1.20537,1.45756,-0.0991243,6
-1.06409,1.28718,0.385566,41
-0.83582,1.01105,-0.0228976,1
-0.943893,1.14219,0.397028,63
-0.729758,0.885582,-0.307477,10
-1.51586,1.83954,0.0416065,1
-0.745894,0.905485,-0.270841,3
-1.50702,1.83012,0.124246,45
-1.24398,1.51122,-0.380473,12
-1.04823,1.27386,0.14433,28
-1.21123,1.47196,-0.301919,35
-1.04164,1.26631,0.201328,10
-1.19524,1.45356,-0.231064,40
-1.52029,1.84951,0.379197,3
-1.17256,1.42699,-0.161587,46
-1.13921,1.38641,0.348799,29
-1.19926,1.46001,-0.0990196,6
-1.05487,1.28468,0.383767,38
-0.832286,1.01396,-0.0228976,1
-0.942351,1.14846,0.398064,63
-0.736606,0.899957,-0.311618,2
-1.17208,1.43302,-0.427407,1
-1.48166,1.81217,0.122675,39
-1.22654,1.50014,-0.376657,12
-1.05156,1.28659,0.145376,27
-1.20609,1.47618,-0.301919,34
-1.04098,1.27455,0.202059,10
-1.18263,1.44849,-0.229602,40
-1.50133,1.83951,0.376069,3
-1.16379,1.42644,-0.161064,38
-1.13685,1.39342,0.349562,33
-1.19037,1.45954,-0.0987056,3
-1.05285,1.29138,0.384666,41
-0.803475,0.98586,-0.0221995,1
-0.933455,1.14575,0.395993,61
-0.948908,1.16805,-0.40324,1
-0.852361,1.0492,0.0235957,1
-1.18181,1.45526,-0.432806,2
-1.47784,1.82043,0.122885,38
-1.21361,1.49548,-0.374367,12
-1.03554,1.27651,0.143807,27
-1.20067,1.48059,-0.301919,34
-1.03778,1.27972,0.202303,10
-1.17131,1.4449,-0.228383,37
-1.49366,1.8432,0.375756,4
-1.14627,1.41502,-0.159321,42
-1.14409,1.41283,0.353378,35
-1.1536,1.42509,-0.0960888,1
-1.05546,1.30431,0.387366,38
-0.78745,0.973114,-0.0218504,1
-0.918515,1.13549,0.391334,56
-0.961805,1.1924,-0.410487,1
-0.835958,1.03675,0.0232466,1
-1.1728,1.45503,-0.431456,2
-1.47273,1.82714,0.12299,37
-1.20469,1.49512,-0.373222,12
-1.04108,1.29253,0.145201,28
-1.1831,1.46938,-0.29879,35
-1.03433,1.28506,0.202547,10
-1.16103,1.443,-0.227408,37
-1.49836,1.86226,0.378571,4
-1.13882,1.4159,-0.158972,32
-1.13669,1.41376,0.352615,38
-0.808287,1.00567,-0.0676181,1
-1.05212,1.30951,0.387816,36
-0.789058,0.982092,-0.02199,1
-0.920595,1.14622,0.393923,67
-0.945561,1.18067,-0.405311,1
-0.820015,1.02391,0.0228976,1
-1.15823,1.44674,-0.427857,2
-1.4626,1.82759,0.122675,30
-1.19701,1.49625,-0.372459,11
-1.04776,1.31016,0.14677,29
-1.17576,1.47021,-0.298164,35
-1.0251,1.28228,0.201572,10
-1.15624,1.44684,-0.227408,28
-1.48939,1.86439,0.377946,5
-1.12393,1.40742,-0.157578,7
-1.13322,1.41905,0.352997,42
-0.782519,0.980245,-0.065734,1
-1.05507,1.32213,0.390515,36
-0.803083,1.00673,-0.0224787,1
-0.910566,1.14187,0.391334,58
-0.953667,1.19892,-0.410487,1
-0.796523,1.00173,0.0223391,1
-1.1556,1.45382,-0.428757,2
-1.43634,1.80766,0.121001,23
-1.18593,1.49252,-0.370551,11
-1.04837,1.31987,0.147468,20
-1.16079,1.46193,-0.295661,30
-1.01815,1.28275,0.201084,10
-1.13884,1.43532,-0.224971,11
-1.48287,1.86958,0.377946,4
-1.13314,1.42915,0.354523,45
-0.77413,0.976709,-0.0653153,1
-1.04923,1.32428,0.390065,31
-0.814463,1.02833,-0.0228976,1
-0.906574,1.14504,0.391334,58
-0.939897,1.19012,-0.406346,1
-0.793021,1.0045,0.0223391,1
-1.14568,1.45173,-0.426957,2
-1.43002,1.81267,0.121001,13
-1.1722,1.48586,-0.36788,10
-1.04745,1.32821,0.14799,22
-1.15568,1.46598,-0.295661,24
-1.01367,1.28629,0.201084,10
-1.07978,1.37067,-0.214246,1
-1.47389,1.87164,0.37732,5
-1.13179,1.43773,0.355668,44
-0.778127,0.988822,-0.0659433,1
-1.0446,1.32793,0.390065,31
-0.810869,1.03117,-0.0228976,1
-0.89899,1.14364,0.389782,56
-0.938121,1.19643,-0.407381,1
-0.791978,1.01041,0.0224089,1
-1.137,1.45112,-0.425607,2
-1.14764,1.46522,-0.361774,9
-1.04158,1.33029,0.147816,21
-1.15178,1.47156,-0.295974,7
-1.01162,1.29295,0.201572,10
-0.827947,1.05858,-0.165011,1
-1.46281,1.87029,0.376069,6
-0.778036,0.995124,-0.110513,2
-1.13885,1.45714,0.359484,44
-0.769752,0.985237,-0.0655246,1
-1.04236,1.33464,0.390965,27
-0.787751,1.00864,-0.0223391,1
-0.895193,1.14662,0.389782,61
-0.931566,1.19665,-0.406346,1
-0.778795,1.00041,0.0221297,1
-1.13338,1.45642,-0.426057,2
-1.15336,1.48316,-0.365208,4
-1.03693,1.33392,0.147816,19
-1.00732,1.2963,0.201572,10
-0.824432,1.06132,-0.165011,1
-1.46596,1.88787,0.378571,5
-0.791661,1.01987,-0.112954,2
-1.1316,1.4578,0.358721,44
-0.761583,0.981473,-0.0651059,1
-1.04271,1.34425,0.392765,22
-0.779324,1.00506,-0.0221995,1
-0.884084,1.14058,0.386676,61
-0.927593,1.19973,-0.406346,1
-0.772853,0.999954,0.0220598,1
-1.11042,1.43723,-0.419309,2
-0.822837,1.0654,0.0705489,1
-1.15804,1.49941,-0.368261,1
-1.07877,1.39728,0.15444,30
-0.782074,1.01335,-0.202739,1
-0.994304,1.2888,0.199866,10
-0.820722,1.06419,-0.165011,1
-1.45575,1.88828,0.377633,6
-0.788096,1.02263,-0.112954,2
-1.12651,1.46175,0.358721,44
-0.753277,0.977796,-0.0646873,1
-1.05347,1.36795,0.398613,18
-0.768492,0.998267,-0.02199,1
-0.881275,1.14519,0.387193,64
-0.918485,1.19699,-0.404275,1
-0.769357,1.00265,0.0220598,1
-1.10065,1.43492,-0.417509,1
-0.80696,1.05241,0.0695022,1
-1.15847,1.51193,0.166642,25
-0.761539,0.994252,-0.198359,1
-0.9898,1.29227,0.199866,10
-0.773558,1.01031,-0.156237,1
-1.45395,1.89962,0.378884,6
-0.796629,1.04119,-0.114697,2
-1.12353,1.46898,0.359484,44
-0.747262,0.977377,-0.0644779,1
-1.04726,1.37026,0.398163,12
-0.767431,1.00412,-0.0220598,1
-0.872582,1.14211,0.385123,61
-0.914301,1.20019,-0.404275,1
-0.741447,0.97364,0.0213617,1
-0.766813,1.00768,0.066362,1
-1.21832,1.60159,0.176055,34
-0.793934,1.04408,-0.207745,1
-0.994667,1.30853,0.201816,11
-0.767448,1.00998,-0.155749,1
-1.43742,1.89235,0.376381,6
-0.780938,1.0281,-0.112954,2
-1.1267,1.48384,0.362155,45
-0.7366,0.970434,-0.0638499,1
-1.04954,1.38322,0.400863,13
-0.763745,1.00693,-0.0220598,1
-0.873058,1.15146,0.387193,64
-0.912436,1.20646,-0.405311,1
-0.757339,1.00174,0.0219202,1
-0.789777,1.04541,0.0686648,1
-0.760946,1.00725,-0.24538,1
-1.26916,1.68056,0.184247,42
-0.766481,1.01531,-0.201488,1
-0.992485,1.31516,0.202303,11
-0.766308,1.01582,-0.156237,1
-1.43199,1.89894,0.376694,6
-0.731759,0.970372,-0.10633,2
-1.12861,1.49717,0.364445,41
-0.735612,0.97619,-0.0640592,1
-1.05291,1.39777,0.404012,12
-0.738574,0.980833,-0.0214316,1
-0.859739,1.14216,0.383052,60
-0.894301,1.1911,-0.399099,1
-0.734631,0.978793,0.0213617,1
-0.771743,1.02899,0.0674087,1
-0.757426,1.0099,-0.24538,1
-1.30272,1.73759,0.19,29
-0.720284,0.961073,-0.190224,1
-0.987888,1.31862,0.202303,10
-0.760377,1.01531,-0.155749,1
-0.925771,1.2366,0.244664,5
-0.721204,0.963351,-0.105284,2
-1.12808,1.50739,0.365972,48
-0.727414,0.972355,-0.0636405,1
-1.0492,1.403,0.404462,11
-0.725567,0.970592,-0.0211523,1
-0.849965,1.13741,0.380464,56
-0.728821,0.978145,0.0212919,1
-0.749062,1.00604,0.065734,1
-0.742171,0.996787,-0.241564,1
-1.25739,1.68938,0.184247,70
-0.747583,1.00479,-0.198359,1
-0.976171,1.3125,0.200841,11
-0.766304,1.0307,-0.157699,1
-0.921448,1.23983,0.244664,6
-0.732098,0.985052,-0.107376,2
-1.11345,1.49871,0.362919,41
-0.726398,0.978095,-0.0638499,1
-1.05591,1.4223,0.408961,10
-0.78176,1.05341,-0.0228976,1
-0.849442,1.14503,0.382017,49
-0.717078,0.969429,0.0210476,2
-0.743347,1.00531,0.0655246,1
-0.750357,1.01516,-0.24538,1
-1.32371,1.79151,0.19488,33
-0.734682,0.994679,-0.195856,1
-0.973942,1.31909,0.201328,10
-0.769775,1.04295,-0.159161,1
-0.903255,1.2238,0.240909,1
-0.749946,1.01646,-0.110513,2
-1.12336,1.52313,0.36788,44
-0.715868,0.970979,-0.0632218,1
-1.04747,1.42127,0.407611,10
-0.778263,1.056,-0.0228976,1
-0.843349,1.14473,0.380982,39
-0.720962,0.981471,0.021257,2
-0.725651,0.988577,0.0642686,1
-0.763068,1.03993,-0.250723,1
-1.31038,1.78648,0.193834,40
-0.724369,0.987553,-0.193979,1
-0.97191,1.32552,0.201816,10
-0.754576,1.02949,-0.156724,1
-0.896642,1.22376,0.240283,1
-0.736976,1.00621,-0.109119,2
-1.12178,1.5316,0.369025,42
-0.719723,0.983017,-0.0638499,1
-1.0439,1.42631,0.408061,10
-0.715534,0.978012,-0.0211523,1
-0.84505,1.15546,0.38357,30
-0.719888,0.987213,0.0213268,2
-0.715138,0.981419,0.0636405,1
-0.743429,1.02024,-0.24538,1
-1.30093,1.78598,0.193311,35
-0.744173,1.02201,-0.200236,1
-0.966109,1.3273,0.201572,10
-0.746307,1.0257,-0.155749,1
-0.859831,1.18215,0.231523,1
-0.731291,1.00543,-0.10877,2
-1.12682,1.54979,0.372459,44
-0.720984,0.991985,-0.0642686,1
-1.04121,1.4331,0.408961,10
-0.700365,0.964323,-0.0208033,1
-0.830797,1.14433,0.378911,17
-0.691814,0.955703,0.0205938,1
-0.711708,0.983909,0.0636405,1
-0.723754,1.00056,-0.240038,1
-1.28768,1.78083,0.192266,42
-0.733658,1.015,-0.198359,1
-0.968445,1.34032,0.203034,10
-0.710177,0.983236,-0.148924,1
-0.868419,1.20277,0.234965,1
-0.699786,0.969207,-0.104587,2
-1.1191,1.55053,0.371696,44
-0.703494,0.97506,-0.0630125,1
-1.03734,1.4383,0.409411,9
-0.767162,1.06409,-0.0228976,1
-0.838092,1.1629,0.384087,13
-0.707144,0.984095,0.0211523,1
-0.722248,1.00586,0.0648966,1
-0.720257,1.00308,-0.240038,1
-1.28959,1.79664,0.193486,41
-0.700169,0.975825,-0.190224,1
-0.957976,1.33562,0.201816,8
-0.715994,0.998616,-0.150874,1
-0.865366,1.20739,0.235277,3
-0.705684,0.984599,-0.105981,2
-1.10797,1.54645,0.369788,37
-0.714042,0.996995,-0.0642686,1
-1.04365,1.45776,0.41391,9
-0.763443,1.06676,-0.0228976,1
-0.841896,1.17682,0.387711,11
-0.694415,0.973534,0.0208731,1
-0.711778,0.998612,0.0642686,1
-0.732705,1.02797,-0.24538,1
-1.28562,1.80438,0.193834,43
-0.708219,0.994353,-0.193353,1
-0.952157,1.33734,0.201572,10
-0.714806,1.00434,-0.151362,1
-0.851986,1.19753,0.232775,5
-0.706863,0.99355,-0.106679,2
-1.10825,1.55831,0.371696,35
-0.705928,0.99297,-0.0638499,1
-1.03743,1.45981,0.41346,9
-0.701809,0.987907,-0.0211523,1
-0.850087,1.19707,0.393405,7
-0.70719,0.9988,0.0213617,1
-0.701539,0.991186,0.0636405,1
-0.729112,1.03052,-0.24538,1
-1.27702,1.8056,0.193486,39
-0.702462,0.993593,-0.192727,1
-0.949774,1.3439,0.202059,8
-0.700015,0.990497,-0.148924,1
-0.84459,1.19551,0.231836,7
-0.685001,0.969972,-0.10389,2
-1.1096,1.57179,0.373986,35
-0.697851,0.9889,-0.0634312,1
-1.02921,1.45846,0.41211,9
-0.680087,0.964084,-0.0205938,1
-0.875059,1.24093,0.406864,7
-0.685472,0.974966,0.0208033,1
-0.700545,0.996775,0.0638499,1
-0.698604,0.994382,-0.236222,1
-1.2653,1.80167,0.192614,39
-0.696894,0.992683,-0.192102,1
-0.939611,1.33892,0.200841,8
-0.703568,1.00256,-0.150387,1
-0.829277,1.18213,0.228707,10
-0.681781,0.972238,-0.10389,2
-1.10776,1.58028,0.375131,29
-0.699152,0.997752,-0.0638499,1
-1.02773,1.46665,0.41346,9
-0.688359,0.982712,-0.0209429,1
-0.879803,1.25649,0.411005,5
-0.679946,0.973955,0.0207335,1
-0.685634,0.982833,0.0628032,1
-0.697375,1.00004,-0.236985,1
-1.25476,1.79932,0.191917,37
-0.698116,1.00147,-0.193353,1
-0.924951,1.32737,0.198647,8
-0.704603,1.01153,-0.151362,1
-0.810471,1.16395,0.22464,12
-0.692041,0.994235,-0.105981,2
-0.696327,1.00077,0.236985,30
-0.677419,0.973952,-0.0621751,1
-1.02705,1.47663,0.41526,9
-0.691773,0.994961,-0.0211523,1
-0.875412,1.25955,0.411005,6
-0.672956,0.971509,0.0206287,2
-0.752158,1.08625,-0.305034,3
-0.682027,0.98534,0.0628032,1
-0.682534,0.98644,-0.233169,1
-1.25156,1.80882,0.19244,31
-0.66972,0.968281,-0.18647,1
-0.894115,1.29319,0.193041,8
-0.689604,0.997773,-0.148924,1
-0.801708,1.16041,0.223388,14
-0.688393,0.996765,-0.105981,2
-1.07077,1.55101,0.366353,20
-0.673844,0.976428,-0.0621751,1
-1.02385,1.48359,0.416159,9
-0.688122,0.997489,-0.0211523,1
-0.87079,1.26275,0.411005,6
-0.685247,0.997041,0.0211174,2
-0.732723,1.06652,-0.298735,3
-0.677281,0.986186,0.0626985,1
-0.685756,0.998526,-0.235458,1
-1.24041,1.80683,0.191743,25
-0.697463,1.01633,-0.19523,1
-0.837714,1.22116,0.181829,11
-0.697169,1.01667,-0.151362,1
-0.779579,1.13727,0.218383,20
-0.684909,0.999162,-0.105981,2
-1.02096,1.48996,0.351089,12
-0.656888,0.959001,-0.0609191,1
-1.014,1.48091,0.41436,7
-0.688979,1.00661,-0.0212919,1
-0.881428,1.28826,0.418252,5
-0.672748,0.986211,0.0208382,2
-0.744366,1.09161,-0.305034,3
-0.65696,0.96379,0.0611284,1
-0.677843,0.994425,-0.233932,1
-1.23297,1.8095,0.191568,22
-0.676119,0.99264,-0.190224,1
-0.789875,1.16009,0.172323,11
-0.675745,0.992836,-0.147462,1
-0.760049,1.11712,0.214002,21
-0.667968,0.981779,-0.10389,2
-0.650303,0.956173,0.224773,8
-0.669257,0.984412,-0.0623845,1
-1.00882,1.48444,0.41436,6
-0.662987,0.975922,-0.0205938,1
-0.885608,1.30411,0.422393,5
-0.66818,0.986897,0.0208033,1
-0.740551,1.0942,-0.305034,3
-0.664955,0.982503,0.0621751,1
-0.652365,0.964264,-0.226299,1
-1.22106,1.80554,0.190697,17
-0.683713,1.01136,-0.193353,1
-0.682452,1.00987,0.149656,10
-0.661163,0.97874,-0.145025,1
-0.704369,1.0427,0.199298,14
-0.666767,0.987407,-0.104238,2
-0.656847,0.973083,0.228208,15
-0.654645,0.970186,-0.0613377,1
-1.0069,1.49279,0.41571,5
-0.659747,0.978115,-0.0205938,1
-0.876959,1.30063,0.420322,5
-0.655979,0.975831,0.020524,1
-0.654839,0.974871,0.0615471,1
-0.67745,1.00891,-0.236222,1
-1.20809,1.79987,0.189651,11
-0.664943,0.990659,-0.188973,1
-0.656979,0.979164,0.144781,12
-0.684451,1.02049,-0.150874,1
