# .PCD v.7 - Point Cloud Data file format
VERSION .7
FIELDS x y z intensity normals observationDirections
SIZE 4 4 4 4 4 4
TYPE F F F F F F
COUNT 1 1 1 1 3 3
WIDTH 529
HEIGHT 1
POINTS 529
DATA ascii
0.731809 -0.181104 -0.0131591 13 -0.411624 0.879994 -0.237015 -0.731809 0.181104 0.0131591
0.724755 -0.180836 0.0391473 78 -0.682541 0.705903 -0.189311 -0.724755 0.180836 -0.0391473
0.740354 -0.184865 0.0667613 74 -0.664499 -0.597381 -0.448972 -0.740354 0.184865 -0.0667613
0.688042 -0.172314 -0.0620549 44 -0.0845916 0.0210435 -0.996193 -0.688042 0.172314 0.0620549
0.759825 -0.190714 0.180861 51 0.0576702 0.95061 0.304984 -0.759825 0.190714 -0.180861
0.725131 -0.183082 0.0130544 100 -0.411624 0.879994 -0.237015 -0.725131 0.183082 -0.0130544
0.737838 -0.186702 0.066587 100 -0.664499 -0.597381 -0.448972 -0.737838 0.186702 -0.066587
0.731222 -0.185299 0.0926207 84 -0.0364177 0.99434 0.0998092 -0.731222 0.185299 -0.0926207
0.661919 -0.16786 -0.0838461 11 -0.213968 0.924249 0.3162 -0.661919 0.16786 0.0838461
0.751667 -0.191179 0.179061 48 -0.126503 0.989574 0.0688443 -0.751667 0.191179 -0.179061
0.715769 -0.183778 0.0387286 75 -0.682541 0.705903 -0.189311 -0.715769 0.183778 -0.0387286
0.594988 -0.152988 -0.0973023 41 -0.151643 0.0386685 -0.987679 -0.594988 0.152988 0.0973023
0.722848 -0.185999 0.0916458 86 -0.664499 -0.597381 -0.448972 -0.722848 0.185999 -0.0916458
0.684368 -0.176225 -0.086771 11 -0.0486771 0.997392 0.0532825 -0.684368 0.176225 0.086771
0.663671 -0.171143 -0.0599631 48 -0.0845916 0.0210435 -0.996193 -0.663671 0.171143 0.0599631
0.741381 -0.19132 0.148831 75 0.184638 -0.0472734 -0.981669 -0.741381 0.19132 -0.148831
0.717056 -0.186779 0.0388333 73 -0.682541 0.705903 -0.189311 -0.717056 0.186779 -0.0388333
0.709459 -0.185065 0.0641466 91 -0.226891 0.965886 0.124839 -0.709459 0.185065 -0.0641466
0.649148 -0.169695 -0.0823837 12 -0.213968 0.924249 0.3162 -0.649148 0.169695 0.0823837
0.707134 -0.185249 -0.0383099 100 0.0506464 -0.0129075 0.998633 -0.707134 0.185249 0.0383099
0.738104 -0.193638 0.204467 60 -0.126503 0.989574 0.0688443 -0.738104 0.193638 -0.204467
0.718331 -0.189791 0.038938 73 -0.682541 0.705903 -0.189311 -0.718331 0.189791 -0.038938
0.590086 -0.156128 -0.0966765 42 -0.151643 0.0386685 -0.987679 -0.590086 0.156128 0.0966765
0.717694 -0.190025 0.0911583 87 -0.59378 0.803961 0.0327444 -0.717694 0.190025 -0.0911583
0.713495 -0.189313 0.143488 83 0.184638 -0.0472734 -0.981669 -0.713495 0.189313 -0.143488
0.689143 -0.18298 -0.0373679 100 0.0506464 -0.0129075 0.998633 -0.689143 0.18298 0.0373679
0.701515 -0.186528 -0.0126704 15 -0.305477 0.947347 0.0960123 -0.701515 0.186528 0.0126704
0.735557 -0.195717 0.203949 61 -0.24998 0.0698089 0.965731 -0.735557 0.195717 -0.203949
0.702263 -0.188039 0.0381006 76 -0.46752 0.875986 0.118633 -0.702263 0.188039 -0.0381006
0.709358 -0.19047 0.0901833 90 -0.226891 0.965886 0.124839 -0.709358 0.19047 -0.0901833
0.655646 -0.17617 -0.0833586 12 -0.0486771 0.997392 0.0532825 -0.655646 0.17617 0.0833586
0.726838 -0.195299 0.119203 75 0.0226852 0.99345 0.111997 -0.726838 0.195299 -0.119203
0.665721 -0.179002 -0.0603118 47 -0.185464 0.909463 0.372129 -0.665721 0.179002 0.0603118
0.720414 -0.193843 0.145015 81 0.184638 -0.0472734 -0.981669 -0.720414 0.193843 -0.145015
0.682714 -0.183827 -0.0370539 100 0.0503258 -0.0139593 0.998635 -0.682714 0.183827 0.0370539
0.740499 -0.199663 0.205502 59 -0.24998 0.0698089 0.965731 -0.740499 0.199663 -0.205502
0.713284 -0.193929 0.0646696 100 -0.59378 0.803961 0.0327444 -0.713284 0.193929 -0.0646696
0.611884 -0.16636 -0.100431 39 0.0102394 0.904129 0.427136 -0.611884 0.16636 0.100431
0.647397 -0.176258 -0.0823837 12 0.117273 -0.0329623 0.992553 -0.647397 0.176258 0.0823837
0.710904 -0.193681 0.1167 80 -0.59378 0.803961 0.0327444 -0.710904 0.193681 -0.1167
0.71219 -0.194165 0.143488 83 0.0226852 0.99345 0.111997 -0.71219 0.194165 -0.143488
0.687881 -0.187667 -0.0373679 100 0.0503258 -0.0139593 0.998635 -0.687881 0.187667 0.0373679
0.743525 -0.203266 0.206538 59 -0.24998 0.0698089 0.965731 -0.743525 0.203266 -0.206538
0.697999 -0.191868 0.0126355 100 -0.305477 0.947347 0.0960123 -0.697999 0.191868 -0.0126355
0.685561 -0.188578 0.0372632 74 -0.410976 0.910933 -0.0360516 -0.685561 0.188578 -0.0372632
0.695349 -0.191531 0.0631008 100 -0.226891 0.965886 0.124839 -0.695349 0.191531 -0.0631008
0.596065 -0.164296 -0.097928 41 0.0102394 0.904129 0.427136 -0.596065 0.164296 0.097928
0.704217 -0.194238 0.0896958 91 -0.682934 -0.681331 -0.263418 -0.704217 0.194238 -0.0896958
0.717185 -0.198219 0.144633 81 0.0226852 0.99345 0.111997 -0.717185 0.198219 -0.144633
0.730596 -0.2022 0.175012 56 -0.21742 0.0600355 0.97423 -0.730596 0.2022 -0.175012
0.688027 -0.190419 -0.012461 16 -0.410976 0.910933 -0.0360516 -0.688027 0.190419 0.012461
0.681948 -0.18989 0.0123563 100 0.0932131 0.995555 -0.0135027 -0.681948 0.18989 -0.0123563
0.696442 -0.194188 0.0378912 71 -0.128049 0.988116 0.0850359 -0.696442 0.194188 -0.0378912
0.646182 -0.18066 -0.0823837 12 0.117273 -0.0329623 0.992553 -0.646182 0.18066 0.0823837
0.636982 -0.178328 -0.0578714 51 0.0836439 -0.0241476 0.996203 -0.636982 0.178328 0.0578714
0.684665 -0.191806 -0.0372632 100 0.0503258 -0.0139593 0.998635 -0.684665 0.191806 0.0372632
0.724292 -0.203044 0.173662 57 -0.216307 0.0638427 0.974236 -0.724292 0.203044 -0.173662
0.714225 -0.20049 0.198773 66 -0.216062 0.776815 -0.591503 -0.714225 0.20049 -0.198773
0.690195 -0.195175 0.0627521 100 -0.128049 0.988116 0.0850359 -0.690195 0.195175 -0.0627521
0.691419 -0.195782 0.0882334 94 -0.0461204 0.998857 0.0125634 -0.691419 0.195782 -0.0882334
0.651722 -0.184787 -0.0592659 73 0.0836439 -0.0241476 0.996203 -0.651722 0.184787 0.0592659
0.691266 -0.19613 0.139672 88 -0.0461204 0.998857 0.0125634 -0.691266 0.19613 -0.139672
0.670542 -0.190376 -0.0365305 100 0.0503258 -0.0139593 0.998635 -0.670542 0.190376 0.0365305
0.677064 -0.192483 -0.0122865 17 0.0932131 0.995555 -0.0135027 -0.677064 0.192483 0.0122865
0.67676 -0.193547 0.0122865 100 0.0932131 0.995555 -0.0135027 -0.67676 0.193547 -0.0122865
0.681629 -0.195196 0.0371585 81 -0.128049 0.988116 0.0850359 -0.681629 0.195196 -0.0371585
0.689509 -0.197583 0.0627521 100 -0.128049 0.988116 0.0850359 -0.689509 0.197583 -0.0627521
0.56396 -0.161713 -0.0929221 44 0.0102394 0.904129 0.427136 -0.56396 0.161713 0.0929221
0.679283 -0.19491 0.086771 97 -0.0461204 0.998857 0.0125634 -0.679283 0.19491 -0.086771
0.629641 -0.180784 -0.0804338 12 0.117273 -0.0329623 0.992553 -0.629641 0.180784 0.0804338
0.700572 -0.201283 0.115449 82 -0.682934 -0.681331 -0.263418 -0.700572 0.201283 -0.115449
0.649158 -0.186511 -0.0590916 73 0.0836439 -0.0241476 0.996203 -0.649158 0.186511 0.0590916
0.660276 -0.189955 -0.0360071 100 0.0932131 0.995555 -0.0135027 -0.660276 0.189955 0.0360071
0.709095 -0.204402 0.197738 66 -0.216062 0.776815 -0.591503 -0.709095 0.204402 -0.197738
0.683075 -0.198322 0.0622292 97 -0.128049 0.988116 0.0850359 -0.683075 0.198322 -0.0622292
0.582361 -0.169192 -0.0960508 42 0.0102394 0.904129 0.427136 -0.582361 0.169192 0.0960508
0.689845 -0.201071 0.139672 88 -0.200627 0.979436 0.0213099 -0.689845 0.201071 -0.139672
0.701547 -0.204615 0.168713 61 -0.216307 0.0638427 0.974236 -0.701547 0.204615 -0.168713
0.67344 -0.197821 0.0122516 100 -0.823533 0.564934 0.0514143 -0.67344 0.197821 -0.0122516
0.664886 -0.19556 0.0363212 85 -0.522787 0.850482 -0.0580909 -0.664886 0.19556 -0.0363212
0.683583 -0.201449 0.0875022 100 -0.200627 0.979436 0.0213099 -0.683583 0.201449 -0.0875022
0.613099 -0.180794 -0.0784839 13 -0.116493 0.0358735 -0.992544 -0.613099 0.180794 0.0784839
0.672589 -0.198464 0.111068 90 -0.964904 0.260946 -0.0294371 -0.672589 0.198464 -0.111068
0.692869 -0.204711 0.140435 87 -0.682934 -0.681331 -0.263418 -0.692869 0.204711 -0.140435
0.697055 -0.20608 0.167813 63 -0.216307 0.0638427 0.974236 -0.697055 0.20608 -0.167813
0.662285 -0.19731 0.0362165 92 -0.522787 0.850482 -0.0580909 -0.662285 0.19731 -0.0362165
0.672057 -0.200477 0.0613576 100 -0.823533 0.564934 0.0514143 -0.672057 0.200477 -0.0613576
0.543248 -0.162156 -0.0897934 46 0.149598 -0.0449218 0.987726 -0.543248 0.162156 0.0897934
0.679036 -0.202817 0.0870147 97 -0.200627 0.979436 0.0213099 -0.679036 0.202817 -0.0870147
0.628013 -0.187816 -0.0573485 78 0.0351579 0.843236 0.536393 -0.628013 0.187816 0.0573485
0.680865 -0.203751 0.138146 91 -0.200627 0.979436 0.0213099 -0.680865 0.203751 -0.138146
0.667749 -0.199953 -0.0365305 100 0.0276854 0.989782 0.139874 -0.667749 0.199953 0.0365305
0.696331 -0.208512 0.167813 63 -0.216307 0.0638427 0.974236 -0.696331 0.208512 -0.167813
0.661627 -0.199505 0.0362165 85 -0.522787 0.850482 -0.0580909 -0.661627 0.199505 -0.0362165
0.671388 -0.202704 0.0613576 100 -0.823533 0.564934 0.0514143 -0.671388 0.202704 -0.0613576
0.561617 -0.169669 -0.0929221 44 0.149598 -0.0449218 0.987726 -0.561617 0.169669 0.0929221
0.668859 -0.202195 0.085796 100 -0.10151 0.994636 0.0198496 -0.668859 0.202195 -0.085796
0.669332 -0.202466 0.110756 90 -0.964904 0.260946 -0.0294371 -0.669332 0.202466 -0.110756
0.629294 -0.190474 -0.0575228 77 0.0351579 0.843236 0.536393 -0.629294 0.190474 0.0575228
0.66786 -0.20253 -0.0121818 16 0.0166959 -0.00504895 0.999848 -0.66786 0.20253 0.0121818
0.659016 -0.20123 0.0361118 99 -0.14053 0.980117 0.140081 -0.659016 0.20123 -0.0361118
0.542161 -0.165755 -0.0897934 46 0.149598 -0.0449218 0.987726 -0.542161 0.165755 0.0897934
0.654897 -0.200347 0.0840899 100 -0.10151 0.994636 0.0198496 -0.654897 0.200347 -0.0840899
0.580834 -0.177801 -0.074584 14 0.0351579 0.843236 0.536393 -0.580834 0.177801 0.074584
0.685581 -0.210388 0.165564 64 0.214166 -0.0673242 -0.974474 -0.685581 0.210388 -0.165564
0.690647 -0.212207 0.193597 69 0.247015 -0.0760834 -0.96602 -0.690647 0.212207 -0.193597
0.658468 -0.204208 0.109191 83 -0.10151 0.994636 0.0198496 -0.658468 0.204208 -0.109191
0.626046 -0.194273 -0.0573485 78 0.0276854 0.989782 0.139874 -0.626046 0.194273 0.0573485
0.644674 -0.2003 -0.0353791 100 0.0276854 0.989782 0.139874 -0.644674 0.2003 0.0353791
0.675501 -0.210007 0.163314 66 0.214166 -0.0673242 -0.974474 -0.675501 0.210007 -0.163314
0.653063 -0.203032 -0.0119374 17 0.0166959 -0.00504895 0.999848 -0.653063 0.203032 0.0119374
0.6508 -0.203574 0.0119025 100 -0.322918 0.934244 -0.151365 -0.6508 0.203574 -0.0119025
0.657235 -0.206217 0.0845773 100 0.0596381 0.998127 -0.013605 -0.657235 0.206217 -0.0845773
0.661135 -0.207821 0.134711 96 0.0596381 0.998127 -0.013605 -0.661135 0.207821 -0.134711
0.634445 -0.199553 -0.0348557 100 -0.375385 0.828491 0.415558 -0.634445 0.199553 0.0348557
0.68034 -0.214119 0.164664 65 0.214166 -0.0673242 -0.974474 -0.68034 0.214119 -0.164664
0.635149 -0.200018 -0.0116233 16 -0.982734 0.127176 -0.134391 -0.635149 0.200018 0.0116233
0.668842 -0.210757 0.187903 75 0.245253 -0.0801091 -0.966144 -0.668842 0.210757 -0.187903
0.644366 -0.204034 0.0117978 100 -0.322918 0.934244 -0.151365 -0.644366 0.204034 -0.0117978
0.540365 -0.171518 -0.0897934 46 0.149598 -0.0449218 0.987726 -0.540365 0.171518 0.0897934
0.658403 -0.209111 0.0848211 100 0.0596381 0.998127 -0.013605 -0.658403 0.209111 -0.0848211
0.624313 -0.198404 -0.0804338 12 -0.287526 0.94537 0.153635 -0.624313 0.198404 0.0804338
0.64946 -0.20652 0.10794 85 0.0596381 0.998127 -0.013605 -0.64946 0.20652 -0.10794
0.594295 -0.188978 -0.0545595 84 0.0351579 0.843236 0.536393 -0.594295 0.188978 0.0545595
0.64918 -0.206556 0.132421 100 0.0596381 0.998127 -0.013605 -0.64918 0.206556 -0.132421
0.660741 -0.210742 0.185832 76 0.245253 -0.0801091 -0.966144 -0.660741 0.210742 -0.185832
0.632224 -0.20262 0.0115884 100 -0.982734 0.127176 -0.134391 -0.632224 0.20262 -0.0115884
0.64066 -0.20594 0.0826274 100 -0.10151 0.994636 0.0198496 -0.64066 0.20594 -0.0826274
0.675119 -0.217667 0.163764 66 -0.310254 0.916674 -0.251895 -0.675119 0.217667 -0.163764
0.633772 -0.204336 -0.0116233 18 -0.982734 0.127176 -0.134391 -0.633772 0.204336 0.0116233
0.651837 -0.211795 0.0599631 100 0.0271601 0.99839 0.0497975 -0.651837 0.211795 -0.0599631
0.638086 -0.20745 0.0823837 100 -0.106138 0.98594 -0.12906 -0.638086 0.20745 -0.0823837
0.600295 -0.195279 -0.0775089 13 -0.115477 0.039994 -0.992505 -0.600295 0.195279 0.0775089
0.651796 -0.212159 0.108566 93 -0.790329 0.593704 -0.151314 -0.651796 0.212159 -0.108566
0.6138 -0.19991 -0.0564769 80 -0.287526 0.94537 0.153635 -0.6138 0.19991 0.0564769
0.619063 -0.201743 -0.034123 100 -0.0497653 0.017213 -0.998613 -0.619063 0.201743 0.034123
0.663278 -0.21628 0.161065 68 0.214166 -0.0673242 -0.974474 -0.663278 0.21628 -0.161065
0.523558 -0.172137 -0.0872904 48 0.148418 -0.048621 0.987729 -0.523558 0.172137 0.0872904
0.639831 -0.210613 0.106688 87 -0.224239 0.955013 0.194081 -0.639831 0.210613 -0.106688
0.620252 -0.204528 -0.0342277 100 -0.0497653 0.017213 -0.998613 -0.620252 0.204528 0.0342277
0.622872 -0.205513 -0.0114488 18 0.107844 0.990937 0.0800857 -0.622872 0.205513 0.0114488
0.665911 -0.219842 0.187903 75 0.245253 -0.0801091 -0.966144 -0.665911 0.219842 -0.187903
0.63014 -0.209009 0.0115884 100 0.0271601 0.99839 0.0497975 -0.63014 0.209009 -0.0115884
0.631195 -0.209604 0.0348557 91 0.0271601 0.99839 0.0497975 -0.631195 0.209604 -0.0348557
0.519236 -0.172626 -0.0866647 48 0.148418 -0.048621 0.987729 -0.519236 0.172626 0.0866647
0.634775 -0.211162 0.0821399 100 -0.106138 0.98594 -0.12906 -0.634775 0.211162 -0.0821399
0.627847 -0.2091 0.104811 90 -0.106138 0.98594 -0.12906 -0.627847 0.2091 -0.104811
0.597304 -0.199044 -0.0550824 83 -0.0824515 0.0286535 -0.996183 -0.597304 0.199044 0.0550824
0.646308 -0.215374 0.132421 100 -0.790329 0.593704 -0.151314 -0.646308 0.215374 -0.132421
0.625255 -0.208479 -0.0345417 100 -0.375385 0.828491 0.415558 -0.625255 0.208479 0.0345417
0.614564 -0.205153 -0.0113092 18 0.107844 0.990937 0.0800857 -0.614564 0.205153 0.0113092
0.522374 -0.175697 -0.0872904 48 -0.148642 0.0495374 -0.98765 -0.522374 0.175697 0.0872904
0.639679 -0.215276 0.0828712 100 -0.106138 0.98594 -0.12906 -0.639679 0.215276 -0.0828712
0.57944 -0.195116 -0.0750715 14 -0.115477 0.039994 -0.992505 -0.57944 0.195116 0.0750715
0.585312 -0.197207 -0.0540366 85 -0.0824515 0.0286535 -0.996183 -0.585312 0.197207 0.0540366
0.620738 -0.209384 -0.0343324 100 -0.287526 0.94537 0.153635 -0.620738 0.209384 0.0343324
0.659169 -0.222475 0.160615 68 -0.310254 0.916674 -0.251895 -0.659169 0.222475 -0.160615
0.610091 -0.205911 -0.0112393 16 0.107844 0.990937 0.0800857 -0.610091 0.205911 0.0112393
0.646097 -0.218189 0.182726 79 -0.310254 0.916674 -0.251895 -0.646097 0.218189 -0.182726
0.633803 -0.215517 0.0585687 100 -0.107576 0.993539 0.0361642 -0.633803 0.215517 -0.0585687
0.521789 -0.177428 -0.0872904 48 -0.148642 0.0495374 -0.98765 -0.521789 0.177428 0.0872904
0.615045 -0.209978 -0.0113441 19 -0.550616 0.829416 0.09429 -0.615045 0.209978 0.0113441
0.608968 -0.209209 0.0112393 100 -0.550616 0.829416 0.09429 -0.608968 0.209209 -0.0112393
0.615744 -0.211657 0.034123 100 -0.693049 -0.70473 -0.151784 -0.615744 0.211657 -0.034123
0.49122 -0.16914 -0.0822845 51 0.148418 -0.048621 0.987729 -0.49122 0.16914 0.0822845
0.551755 -0.1902 -0.0716592 15 0.114373 -0.0388315 0.992679 -0.551755 0.1902 0.0716592
0.625623 -0.215664 0.104811 100 -0.224239 0.955013 0.194081 -0.625623 0.215664 -0.104811
0.576351 -0.198791 -0.0533393 87 -0.0824515 0.0286535 -0.996183 -0.576351 0.198791 0.0533393
0.600345 -0.207302 -0.0332857 100 -0.364874 0.539388 0.758899 -0.600345 0.207302 0.0332857
0.644519 -0.222807 0.182726 79 0.245253 -0.0801091 -0.966144 -0.644519 0.222807 -0.182726
0.613115 -0.213149 0.0340184 100 -0.693049 -0.70473 -0.151784 -0.613115 0.213149 -0.0340184
0.609269 -0.21217 0.0792151 100 -0.440681 0.784694 -0.435954 -0.609269 0.21217 -0.0792151
0.613675 -0.213944 0.102934 93 -0.380452 -0.920046 0.0936603 -0.613675 0.213944 -0.102934
0.620994 -0.216618 0.127842 100 -0.380452 -0.920046 0.0936603 -0.620994 0.216618 -0.127842
0.603426 -0.210608 -0.033495 100 -0.0497653 0.017213 -0.998613 -0.603426 0.210608 0.033495
0.629206 -0.219729 0.153867 74 -0.501355 -0.827382 -0.253146 -0.629206 0.219729 -0.153867
0.606715 -0.213301 0.0337044 89 -0.693049 -0.70473 -0.151784 -0.606715 0.213301 -0.0337044
0.616475 -0.216853 0.0571742 100 -0.440681 0.784694 -0.435954 -0.616475 0.216853 -0.0571742
0.609198 -0.214772 0.102308 94 -0.380452 -0.920046 0.0936603 -0.609198 0.214772 -0.102308
0.569348 -0.200722 -0.0528164 100 -0.364874 0.539388 0.758899 -0.569348 0.200722 0.0528164
0.60457 -0.213377 -0.0335997 100 -0.0497653 0.017213 -0.998613 -0.60457 0.213377 0.0335997
0.628435 -0.221924 0.153867 74 -0.211409 0.0772844 0.974337 -0.628435 0.221924 -0.153867
0.624734 -0.220862 0.17755 83 -0.244431 0.0863705 0.965812 -0.624734 0.220862 -0.17755
0.603012 -0.21413 0.0111695 100 -0.0163832 0.00603637 0.999848 -0.603012 0.21413 -0.0111695
0.508062 -0.180813 -0.0854132 49 0.146422 -0.0537547 0.987761 -0.508062 0.180813 0.0854132
0.546027 -0.194539 -0.0711717 15 0.114373 -0.0388315 0.992679 -0.546027 0.194539 0.0711717
0.608445 -0.216897 0.102308 100 -0.0371529 0.999169 0.0167426 -0.608445 0.216897 -0.102308
0.621316 -0.221607 0.128224 100 -0.224239 0.955013 0.194081 -0.621316 0.221607 -0.128224
0.603822 -0.215486 -0.0335997 100 -0.0497653 0.017213 -0.998613 -0.603822 0.215486 0.0335997
0.634998 -0.226737 0.155666 72 -0.501355 -0.827382 -0.253146 -0.634998 0.226737 -0.155666
0.633055 -0.226292 0.180138 81 -0.244431 0.0863705 0.965812 -0.633055 0.226292 -0.180138
0.585322 -0.210152 0.0108554 100 -0.0163832 0.00603637 0.999848 -0.585322 0.210152 -0.0108554
0.612729 -0.220234 0.034123 100 -0.693049 -0.70473 -0.151784 -0.612729 0.220234 -0.034123
0.595808 -0.214504 0.0777526 100 -0.440681 0.784694 -0.435954 -0.595808 0.214504 -0.0777526
0.607684 -0.219019 0.102308 100 -0.0371529 0.999169 0.0167426 -0.607684 0.219019 -0.102308
0.567933 -0.204692 -0.0528164 100 -0.364874 0.539388 0.758899 -0.567933 0.204692 0.0528164
0.59743 -0.215559 -0.0332857 100 -0.0492015 0.0190357 -0.998607 -0.59743 0.215559 0.0332857
0.626871 -0.226306 0.153867 74 -0.211409 0.0772844 0.974337 -0.626871 0.226306 -0.153867
0.590224 -0.214241 0.0109601 100 -0.0163832 0.00603637 0.999848 -0.590224 0.214241 -0.0109601
0.598816 -0.217596 0.0333903 100 -0.0578048 0.981269 0.183765 -0.598816 0.217596 -0.0333903
0.591324 -0.215224 0.0772652 100 -0.114098 0.0432322 0.992528 -0.591324 0.215224 -0.0772652
0.60506 -0.220463 0.101995 100 -0.0371529 0.999169 0.0167426 -0.60506 0.220463 -0.101995
0.615093 -0.224484 0.151167 76 -0.211409 0.0772844 0.974337 -0.615093 0.224484 -0.151167
0.595447 -0.217431 -0.0110648 18 -0.0406761 0.998991 0.0190581 -0.595447 0.217431 0.0110648
0.633274 -0.231369 0.180656 81 -0.244431 0.0863705 0.965812 -0.633274 0.231369 -0.180656
0.583841 -0.214233 0.0108554 100 -0.0163832 0.00603637 0.999848 -0.583841 0.214233 -0.0108554
0.590554 -0.216931 0.0329717 100 -0.0578048 0.981269 0.183765 -0.590554 0.216931 -0.0329717
0.604037 -0.222003 0.0563026 100 -0.0578048 0.981269 0.183765 -0.604037 0.222003 -0.0563026
0.506141 -0.186123 -0.0854132 49 0.146422 -0.0537547 0.987761 -0.506141 0.186123 0.0854132
0.590569 -0.217287 0.0772652 100 -0.114098 0.0432322 0.992528 -0.590569 0.217287 -0.0772652
0.562751 -0.207275 -0.0524678 100 0.0814739 -0.0309593 0.996195 -0.562751 0.207275 0.0524678
0.615277 -0.226744 0.12746 100 -0.26608 0.927292 0.263307 -0.615277 0.226744 -0.12746
0.588415 -0.216961 -0.032867 100 -0.0492015 0.0190357 -0.998607 -0.588415 0.216961 0.032867
0.608821 -0.224606 0.149817 77 -0.211409 0.0772844 0.974337 -0.608821 0.224606 -0.149817
0.619777 -0.228894 0.177032 84 -0.242308 0.0920793 0.96582 -0.619777 0.228894 -0.177032
0.593538 -0.220381 0.033181 100 -0.0578048 0.981269 0.183765 -0.593538 0.220381 -0.033181
0.601391 -0.223416 0.0561283 100 -0.036685 0.998779 0.0330966 -0.601391 0.223416 -0.0561283
0.590547 -0.219857 0.0998052 97 -0.0371529 0.999169 0.0167426 -0.590547 0.219857 -0.0998052
0.554555 -0.206458 -0.0517705 100 -0.0814739 0.0309593 -0.996195 -0.554555 0.206458 0.0517705
0.587654 -0.219014 -0.032867 100 -0.0492015 0.0190357 -0.998607 -0.587654 0.219014 0.032867
0.609925 -0.227678 0.174444 86 -0.242308 0.0920793 0.96582 -0.609925 0.227678 -0.174444
0.580459 -0.217602 0.0108205 100 -0.0406761 0.998991 0.0190581 -0.580459 0.217602 -0.0108205
0.591281 -0.222012 0.0552567 100 -0.0578048 0.981269 0.183765 -0.591281 0.222012 -0.0552567
0.504829 -0.189652 -0.0854132 49 0.146422 -0.0537547 0.987761 -0.504829 0.189652 0.0854132
0.550017 -0.206738 -0.0721467 15 -0.11377 0.0440054 -0.992532 -0.550017 0.206738 0.0721467
0.582419 -0.219033 0.0985537 100 -0.0371529 0.999169 0.0167426 -0.582419 0.219033 -0.0985537
0.607278 -0.228745 0.149817 77 -0.211409 0.0772844 0.974337 -0.607278 0.228745 -0.149817
0.588679 -0.223265 0.0550824 100 -0.0578048 0.981269 0.183765 -0.588679 0.223265 -0.0550824
0.592769 -0.225172 0.100431 100 0.0727085 0.996093 0.0501155 -0.592769 0.225172 -0.100431
0.569349 -0.216617 -0.0319249 100 -0.0406761 0.998991 0.0190581 -0.569349 0.216617 0.0319249
0.615623 -0.234222 0.152067 75 -0.209652 0.0823196 0.974305 -0.615623 0.234222 -0.152067
0.579003 -0.221447 0.0108205 100 -0.22475 0.973366 0.0452426 -0.579003 0.221447 -0.0108205
0.595377 -0.228067 0.0557797 100 -0.0808846 0.995435 0.0506704 -0.595377 0.228067 -0.0557797
0.552437 -0.212061 -0.0517705 9 -0.0814739 0.0309593 -0.996195 -0.552437 0.212061 0.0517705
0.60025 -0.230775 0.148468 78 -0.209652 0.0823196 0.974305 -0.60025 0.230775 -0.148468
0.525648 -0.20378 -0.0692218 15 0.113033 -0.045297 0.992558 -0.525648 0.20378 0.0692218
0.555408 -0.215429 -0.0521191 100 -0.0814739 0.0309593 -0.996195 -0.555408 0.215429 0.0521191
0.559157 -0.217332 -0.0104714 18 -0.826827 0.284408 0.485252 -0.559157 0.217332 0.0104714
0.61217 -0.23806 0.175997 85 -0.242308 0.0920793 0.96582 -0.61217 0.23806 -0.175997
0.579305 -0.226211 0.0108554 100 -0.22475 0.973366 0.0452426 -0.579305 0.226211 -0.0108554
0.580381 -0.226865 0.0326576 100 0.0843644 0.994197 0.0667499 -0.580381 0.226865 -0.0326576
0.520596 -0.203705 -0.0885419 95 0.326655 0.708895 0.625111 -0.520596 0.203705 0.0885419
0.530479 -0.207786 -0.069953 31 0.113033 -0.045297 0.992558 -0.530479 0.207786 0.069953
0.547233 -0.214458 -0.0514219 9 0.0814739 -0.0309593 0.996195 -0.547233 0.214458 0.0514219
0.595854 -0.233633 0.124407 100 -0.177884 0.0713188 0.981464 -0.595854 0.233633 -0.124407
0.577728 -0.228156 0.032553 100 -0.0808846 0.995435 0.0506704 -0.577728 0.228156 -0.032553
0.568868 -0.224771 0.0535136 100 0.0843644 0.994197 0.0667499 -0.568868 0.224771 -0.0535136
0.568552 -0.224876 0.0750715 100 -0.036685 0.998779 0.0330966 -0.568552 0.224876 -0.0750715
0.535366 -0.211966 -0.050376 9 -0.408585 0.889547 0.204363 -0.535366 0.211966 0.050376
0.582258 -0.23065 0.121736 100 -0.177884 0.0713188 0.981464 -0.582258 0.23065 -0.121736
0.573735 -0.227389 -0.0323436 100 -0.0492015 0.0190357 -0.998607 -0.573735 0.227389 0.0323436
0.594178 -0.235611 0.147568 78 -0.209652 0.0823196 0.974305 -0.594178 0.235611 -0.147568
0.559485 -0.221968 -0.0105063 18 -0.0161552 0.00666175 -0.999847 -0.559485 0.221968 0.0105063
0.557278 -0.222106 0.0104714 100 0.303712 0.893977 0.32949 -0.557278 0.222106 -0.0104714
0.575481 -0.22971 0.0542109 100 -0.0808846 0.995435 0.0506704 -0.575481 0.22971 -0.0542109
0.467796 -0.186821 -0.0797816 53 -0.14618 0.0567087 -0.987631 -0.467796 0.186821 0.0797816
0.562233 -0.22465 0.0743403 100 -0.988948 0.12828 -0.0743325 -0.562233 0.22465 -0.0743403
0.530859 -0.212221 -0.0701967 31 0.113033 -0.045297 0.992558 -0.530859 0.212221 0.0701967
0.538285 -0.215408 -0.0507246 9 -0.826827 0.284408 0.485252 -0.538285 0.215408 0.0507246
0.589734 -0.236235 0.146668 79 -0.209652 0.0823196 0.974305 -0.589734 0.236235 -0.146668
0.597092 -0.239425 0.172373 97 0.239862 -0.0964673 -0.966002 -0.597092 0.239425 -0.172373
0.56021 -0.225544 0.0105413 100 0.303712 0.893977 0.32949 -0.56021 0.225544 -0.0105413
0.570563 -0.229944 0.032239 100 -0.0808846 0.995435 0.0506704 -0.570563 0.229944 -0.032239
0.576483 -0.232563 0.0543852 100 -0.427148 0.890332 0.157653 -0.576483 0.232563 -0.0543852
0.562393 -0.22745 0.11792 100 -0.213374 0.938515 -0.271404 -0.562393 0.22745 -0.11792
0.562836 -0.227743 -0.0318203 16 -0.0482937 0.0202407 -0.998628 -0.562836 0.227743 0.0318203
0.578026 -0.234007 0.143969 82 0.207625 -0.0860569 -0.974416 -0.578026 0.234007 -0.143969
0.559776 -0.226619 -0.0105413 18 -0.0161552 0.00666175 -0.999847 -0.559776 0.226619 0.0105413
0.55197 -0.224581 0.0104016 100 0.303712 0.893977 0.32949 -0.55197 0.224581 -0.0104016
0.564168 -0.229773 0.0319249 100 -0.0808846 0.995435 0.0506704 -0.564168 0.229773 -0.0319249
0.470105 -0.191655 -0.0804073 53 -0.14618 0.0567087 -0.987631 -0.470105 0.191655 0.0804073
0.566932 -0.231476 0.0969894 100 -0.633944 0.727273 0.263039 -0.566932 0.231476 -0.0969894
0.536768 -0.21916 -0.0507246 10 -0.826827 0.284408 0.485252 -0.536768 0.21916 0.0507246
0.57977 -0.236836 0.121736 100 -0.177884 0.0713188 0.981464 -0.57977 0.236836 -0.121736
0.593576 -0.242959 0.171856 98 -0.238572 0.100973 0.965861 -0.593576 0.242959 -0.171856
0.55981 -0.230623 0.0743403 100 -0.988948 0.12828 -0.0743325 -0.55981 0.230623 -0.0743403
0.526734 -0.217104 -0.069953 31 0.113033 -0.045297 0.992558 -0.526734 0.217104 0.069953
0.55699 -0.229688 0.095425 100 -0.988948 0.12828 -0.0743325 -0.55699 0.229688 -0.095425
0.585384 -0.241756 0.146218 79 0.207625 -0.0860569 -0.974416 -0.585384 0.241756 -0.146218
0.535962 -0.221455 -0.0101224 19 -0.408585 0.889547 0.204363 -0.535962 0.221455 0.0101224
0.541154 -0.224596 0.0102271 14 -0.975737 -0.195457 0.0986585 -0.541154 0.224596 -0.0102271
0.559001 -0.232575 0.0743403 100 -0.988948 0.12828 -0.0743325 -0.559001 0.232575 -0.0743403
0.513144 -0.213601 -0.0682468 32 0.326655 0.708895 0.625111 -0.513144 0.213601 0.0682468
0.524189 -0.218306 -0.0496788 10 -0.408585 0.889547 0.204363 -0.524189 0.218306 0.0496788
0.556733 -0.232088 -0.0316109 16 -0.0482937 0.0202407 -0.998628 -0.556733 0.232088 0.0316109
0.573745 -0.239297 0.143519 82 0.207625 -0.0860569 -0.974416 -0.573745 0.239297 -0.143519
0.546298 -0.22785 -0.0103318 21 -0.0929997 0.993341 -0.0680012 -0.546298 0.22785 0.0103318
0.565455 -0.237115 0.0321343 100 -0.427148 0.890332 0.157653 -0.565455 0.237115 -0.0321343
0.547245 -0.229816 0.0728779 100 -0.125976 0.970372 -0.206177 -0.547245 0.229816 -0.0728779
0.517914 -0.217818 -0.0491558 10 -0.0536012 0.975509 0.213328 -0.517914 0.217818 0.0491558
0.566875 -0.240157 0.0538622 100 -0.427148 0.890332 0.157653 -0.566875 0.240157 -0.0538622
0.540957 -0.2294 0.0721467 100 -0.512076 -0.85763 0.0474237 -0.540957 0.2294 -0.0721467
0.487922 -0.20701 -0.0650782 33 -0.258973 0.306804 0.915863 -0.487922 0.20701 0.0650782
0.547537 -0.232528 0.11563 100 -0.213374 0.938515 -0.271404 -0.547537 0.232528 -0.11563
0.538597 -0.228843 -0.0306689 19 -0.0482937 0.0202407 -0.998628 -0.538597 0.228843 0.0306689
0.568516 -0.241672 0.142619 92 0.207625 -0.0860569 -0.974416 -0.568516 0.241672 -0.142619
0.548375 -0.233223 -0.0104016 18 -0.0161552 0.00666175 -0.999847 -0.548375 0.233223 0.0104016
0.577726 -0.245825 0.168232 100 -0.238572 0.100973 0.965861 -0.577726 0.245825 -0.168232
0.541749 -0.231635 0.0308782 100 -0.975737 -0.195457 0.0986585 -0.541749 0.231635 -0.0308782
0.56237 -0.240567 0.0535136 100 -0.295629 0.859232 -0.417521 -0.56237 0.240567 -0.0535136
0.498144 -0.213402 -0.0665407 33 0.326655 0.708895 0.625111 -0.498144 0.213402 0.0665407
0.523745 -0.224477 -0.0498531 10 0.129906 0.988048 0.0829812 -0.523745 0.224477 0.0498531
0.544605 -0.235107 0.0310876 100 -0.975737 -0.195457 0.0986585 -0.544605 0.235107 -0.0310876
0.517473 -0.22393 -0.0493302 12 0.129906 0.988048 0.0829812 -0.517473 0.22393 0.0493302
0.567135 -0.246009 0.165644 100 -0.238572 0.100973 0.965861 -0.567135 0.246009 -0.165644
0.533526 -0.232316 0.0101573 14 -0.310272 0.949248 0.0515631 -0.533526 0.232316 -0.0101573
0.538761 -0.234931 0.0514219 100 -0.512076 -0.85763 0.0474237 -0.538761 0.234931 -0.0514219
0.494823 -0.21608 -0.0662969 33 -0.258973 0.306804 0.915863 -0.494823 0.21608 0.0662969
0.51121 -0.223342 -0.0488072 10 0.129906 0.988048 0.0829812 -0.51121 0.223342 0.0488072
0.554066 -0.242181 0.117538 100 -0.0993832 0.990149 0.0986271 -0.554066 0.242181 -0.117538
0.541661 -0.236871 -0.0309829 16 -0.231516 0.872859 0.429555 -0.541661 0.236871 0.0309829
0.557027 -0.243707 0.140369 100 0.205261 -0.0900486 -0.974556 -0.557027 0.243707 -0.140369
0.519898 -0.228544 0.00991297 14 -0.0989925 0.995064 -0.00698192 -0.519898 0.228544 -0.00991297
0.545232 -0.240021 0.0521191 100 -0.195957 0.973877 0.114732 -0.545232 0.240021 -0.0521191
0.488617 -0.215404 -0.0655657 33 -0.258973 0.306804 0.915863 -0.488617 0.215404 0.0655657
0.52458 -0.232791 0.0100177 14 -0.310272 0.949248 0.0515631 -0.52458 0.232791 -0.0100177
0.505998 -0.225285 -0.0484586 10 -0.57221 0.379516 0.72701 -0.505998 0.225285 0.0484586
0.529611 -0.236241 -0.0101224 21 -0.0159117 0.0072815 -0.999847 -0.529611 0.236241 0.0101224
0.555707 -0.247998 0.163056 100 0.235655 -0.103565 -0.966303 -0.555707 0.247998 -0.163056
0.525589 -0.235438 0.0100526 14 -0.683138 0.720375 0.119929 -0.525589 0.235438 -0.0100526
0.52673 -0.236059 0.0302502 100 -0.683138 0.720375 0.119929 -0.52673 0.236059 -0.0302502
0.52698 -0.236613 0.070928 13 -0.851246 0.474161 -0.224836 -0.52698 0.236613 -0.070928
0.48348 -0.217183 -0.0650782 33 -0.0536012 0.975509 0.213328 -0.48348 0.217183 0.0650782
0.507026 -0.227867 -0.0486329 12 -0.57221 0.379516 0.72701 -0.507026 0.227867 0.0486329
0.533594 -0.239919 0.113722 100 -0.287646 0.918571 -0.271086 -0.533594 0.239919 -0.113722
0.542005 -0.243928 0.13722 100 -0.0993832 0.990149 0.0986271 -0.542005 0.243928 -0.13722
0.521161 -0.235532 0.00998278 14 -0.683138 0.720375 0.119929 -0.521161 0.235532 -0.00998278
0.531362 -0.240366 0.0305642 100 -0.793004 0.606112 -0.061429 -0.531362 0.240366 -0.0305642
0.475524 -0.215507 -0.0641033 34 -0.0536012 0.975509 0.213328 -0.475524 0.215507 0.0641033
0.527132 -0.239007 0.0916706 100 0.279549 0.912619 0.298295 -0.527132 0.239007 -0.0916706
0.525612 -0.238539 -0.0302502 20 -0.231516 0.872859 0.429555 -0.525612 0.238539 0.0302502
0.509784 -0.23157 -0.00977335 21 -0.0989925 0.995064 -0.00698192 -0.509784 0.23157 0.00977335
0.514878 -0.23486 0.00987806 14 -0.0989925 0.995064 -0.00698192 -0.514878 0.23486 -0.00987806
0.529185 -0.241721 0.050899 100 -0.793004 0.606112 -0.061429 -0.529185 0.241721 -0.050899
0.4856 -0.22212 -0.0655657 33 -0.57221 0.379516 0.72701 -0.4856 0.22212 0.0655657
0.500028 -0.228825 -0.04811 12 -0.57221 0.379516 0.72701 -0.500028 0.228825 0.04811
0.538561 -0.2468 0.13677 100 -0.0993832 0.990149 0.0986271 -0.538561 0.2468 -0.13677
0.516244 -0.236682 -0.00991297 21 -0.0159117 0.0072815 -0.999847 -0.516244 0.236682 0.00991297
0.547856 -0.251291 0.161503 100 -0.235715 0.114337 0.965073 -0.547856 0.251291 -0.161503
0.528337 -0.243567 0.050899 100 0.0245681 0.987891 -0.153192 -0.528337 0.243567 -0.050899
0.484822 -0.223814 -0.0655657 33 -0.57221 0.379516 0.72701 -0.484822 0.223814 0.0655657
0.516682 -0.23885 -0.0298315 19 -0.0475611 0.0223085 -0.998619 -0.516682 0.23885 0.0298315
0.515039 -0.239292 0.00991297 14 -0.0595149 0.982725 0.175242 -0.515039 0.239292 -0.00991297
0.462445 -0.215445 -0.0626408 35 -0.0536012 0.975509 0.213328 -0.462445 0.215445 0.0626408
0.512442 -0.238956 0.109906 100 0.279549 0.912619 0.298295 -0.512442 0.238956 -0.109906
0.544382 -0.254197 0.160985 100 -0.235715 0.114337 0.965073 -0.544382 0.254197 -0.160985
0.514243 -0.240998 0.00991297 14 -0.0595149 0.982725 0.175242 -0.514243 0.240998 -0.00991297
0.526624 -0.247249 0.050899 100 0.0245681 0.987891 -0.153192 -0.526624 0.247249 -0.050899
0.467118 -0.21951 -0.0633721 34 -0.0536012 0.975509 0.213328 -0.467118 0.21951 0.0633721
0.506009 -0.23811 -0.0293081 18 -0.0475611 0.0223085 -0.998619 -0.506009 0.23811 0.0293081
0.521886 -0.245692 0.133171 100 -0.537501 0.843096 0.0167866 -0.521886 0.245692 -0.133171
0.506543 -0.238577 -0.00977335 21 -0.851317 -0.244216 0.464347 -0.506543 0.238577 0.00977335
0.509783 -0.241082 0.00984316 14 -0.0595149 0.982725 0.175242 -0.509783 0.241082 -0.00984316
0.514493 -0.24353 0.0298315 100 -0.0595149 0.982725 0.175242 -0.514493 0.24353 -0.0298315
0.523789 -0.248265 0.0711717 100 -0.851246 0.474161 -0.224836 -0.523789 0.248265 -0.0711717
0.515785 -0.244692 0.0904191 100 -0.851246 0.474161 -0.224836 -0.515785 0.244692 -0.0904191
0.521445 -0.247489 0.112196 100 -0.537501 0.843096 0.0167866 -0.521445 0.247489 -0.112196
0.506979 -0.240731 -0.0294128 20 -0.0475611 0.0223085 -0.998619 -0.506979 0.240731 0.0294128
0.521025 -0.247512 0.133171 100 -0.537501 0.843096 0.0167866 -0.521025 0.247512 -0.133171
0.503524 -0.240277 0.00973844 14 -0.0595149 0.982725 0.175242 -0.503524 0.240277 -0.00973844
0.517245 -0.247046 0.0300408 100 -0.683138 0.720375 0.119929 -0.517245 0.247046 -0.0300408
0.515941 -0.246533 0.0500274 100 0.0245681 0.987891 -0.153192 -0.515941 0.246533 -0.0500274
0.51671 -0.247344 0.090732 100 -0.851246 0.474161 -0.224836 -0.51671 0.247344 -0.090732
0.476232 -0.227968 -0.0461925 13 -0.2327 0.960712 0.151269 -0.476232 0.227968 0.0461925
0.509738 -0.244225 -0.0296222 20 -0.0475611 0.0223085 -0.998619 -0.509738 0.244225 0.0296222
0.528944 -0.253541 0.135421 100 -0.202983 0.100893 0.97397 -0.528944 0.253541 -0.135421
0.49044 -0.23519 -0.00949411 22 -0.960118 0.103944 -0.259556 -0.49044 0.23519 0.00949411
0.480883 -0.232157 -0.0655657 33 -0.57221 0.379516 0.72701 -0.480883 0.232157 0.0655657
0.498493 -0.240873 0.107616 100 -0.927087 0.372116 -0.0451674 -0.498493 0.240873 -0.107616
0.524548 -0.253689 0.134521 100 -0.202983 0.100893 0.97397 -0.524548 0.253689 -0.134521
0.500417 -0.242126 -0.00970354 21 -0.960118 0.103944 -0.259556 -0.500417 0.242126 0.00970354
0.504264 -0.244097 0.150115 100 -0.612949 0.789301 -0.0360204 -0.504264 0.244097 -0.150115
0.51779 -0.251872 0.050376 100 -0.253196 0.963247 -0.0897064 -0.51779 0.251872 -0.050376
0.480002 -0.233905 -0.0467155 13 0.0788675 -0.0370925 0.996195 -0.480002 0.233905 0.0467155
0.503162 -0.245626 -0.00977335 21 -0.851317 -0.244216 0.464347 -0.503162 0.245626 0.00977335
0.504236 -0.247678 0.0689781 14 -0.868405 0.363147 -0.337636 -0.504236 0.247678 -0.0689781
0.463216 -0.227629 -0.0633721 34 -0.267469 0.888812 0.37212 -0.463216 0.227629 0.0633721
0.503455 -0.247512 0.0888548 100 -0.612949 0.789301 -0.0360204 -0.503455 0.247512 -0.0888548
0.494608 -0.243377 -0.0288895 20 -0.851317 -0.244216 0.464347 -0.494608 0.243377 0.0288895
0.495126 -0.243847 -0.00963373 21 -0.960118 0.103944 -0.259556 -0.495126 0.243847 0.00963373
0.496535 -0.245511 0.00966863 14 -0.956422 0.215165 0.197386 -0.496535 0.245511 -0.00966863
0.501215 -0.248042 0.0293081 100 -0.956422 0.215165 0.197386 -0.501215 0.248042 -0.0293081
0.507092 -0.251061 0.0495045 100 -0.253072 0.958733 -0.129562 -0.507092 0.251061 -0.0495045
0.464197 -0.230127 -0.0636158 51 -0.2327 0.960712 0.151269 -0.464197 0.230127 0.0636158
0.469433 -0.232824 -0.0458439 13 -0.2327 0.960712 0.151269 -0.469433 0.232824 0.0458439
0.495544 -0.24599 -0.0289941 20 -0.851317 -0.244216 0.464347 -0.495544 0.24599 0.0289941
0.51139 -0.253967 0.131821 100 0.200426 -0.101981 -0.974387 -0.51139 0.253967 -0.131821
0.483527 -0.240235 -0.0094243 22 -0.663473 0.74811 -0.0116272 -0.483527 0.240235 0.0094243
0.525899 -0.261402 0.157362 100 0.231832 -0.114502 -0.965993 -0.525899 0.261402 -0.157362
0.509281 -0.254251 0.0298315 100 -0.253196 0.963247 -0.0897064 -0.509281 0.254251 -0.0298315
0.50427 -0.252079 0.0692218 13 -0.253072 0.958733 -0.129562 -0.50427 0.252079 -0.0692218
0.499948 -0.250137 0.0885419 100 -0.927087 0.372116 -0.0451674 -0.499948 0.250137 -0.0885419
0.482685 -0.241922 -0.0094243 21 -0.558629 0.814748 0.155306 -0.482685 0.241922 0.0094243
0.484091 -0.243578 0.0094592 15 -0.594485 0.74458 0.303625 -0.484091 0.243578 -0.0094592
0.503547 -0.253698 0.0493302 100 -0.253072 0.958733 -0.129562 -0.503547 0.253698 -0.0493302
0.49098 -0.247582 0.0675156 14 -0.378725 0.92269 -0.0721792 -0.49098 0.247582 -0.0675156
0.466124 -0.23515 -0.0641033 51 0.0449528 0.95998 0.276437 -0.466124 0.23515 0.0641033
0.502599 -0.253661 0.0891677 100 -0.0941257 0.995559 0.00150106 -0.502599 0.253661 -0.0891677
0.471353 -0.237891 -0.0461925 13 0.0620348 0.980881 -0.184458 -0.471353 0.237891 0.0461925
0.514822 -0.260168 0.133171 100 -0.202983 0.100893 0.97397 -0.514822 0.260168 -0.133171
0.513718 -0.259836 0.154256 100 0.231832 -0.114502 -0.965993 -0.513718 0.259836 -0.154256
0.487906 -0.24785 0.0286801 100 -0.594485 0.74458 0.303625 -0.487906 0.24785 -0.0286801
0.461642 -0.235016 -0.045321 13 -0.267469 0.888812 0.37212 -0.461642 0.235016 0.045321
0.478705 -0.243912 -0.0281567 20 -0.558629 0.814748 0.155306 -0.478705 0.243912 0.0281567
0.491673 -0.250736 -0.00963373 22 -0.414205 0.164926 0.895116 -0.491673 0.250736 0.00963373
0.499042 -0.254604 0.150115 100 0.228209 -0.121959 -0.965943 -0.499042 0.254604 -0.150115
0.480599 -0.246041 0.0094243 16 -0.594485 0.74458 0.303625 -0.480599 0.246041 -0.0094243
0.499991 -0.256299 0.0491558 100 -0.253072 0.958733 -0.129562 -0.499991 0.256299 -0.0491558
0.499058 -0.256261 0.0888548 100 -0.0941257 0.995559 0.00150106 -0.499058 0.256261 -0.0888548
0.466136 -0.239356 -0.0458439 13 0.0620348 0.980881 -0.184458 -0.466136 0.239356 0.0458439
0.488966 -0.251186 0.106853 100 -0.965193 -0.232921 0.118958 -0.488966 0.251186 -0.106853
0.478347 -0.246048 -0.00938939 24 -0.663473 0.74811 -0.0116272 -0.478347 0.246048 0.00938939
0.486207 -0.251165 0.0286801 100 -0.80434 0.581737 0.120908 -0.486207 0.251165 -0.0286801
0.490244 -0.253467 0.0482843 100 -0.169455 0.977173 -0.128133 -0.490244 0.253467 -0.0482843
0.490123 -0.253622 0.0677594 13 -0.169455 0.977173 -0.128133 -0.490123 0.253622 -0.0677594
0.478909 -0.247925 0.0854132 100 -0.378725 0.92269 -0.0721792 -0.478909 0.247925 -0.0854132
0.495059 -0.256505 0.10838 100 -0.0941257 0.995559 0.00150106 -0.495059 0.256505 -0.10838
0.48887 -0.254707 0.0288895 100 -0.864133 0.193154 -0.464721 -0.48887 0.254707 -0.0288895
0.452278 -0.236043 -0.0626408 52 0.0449528 0.95998 0.276437 -0.452278 0.236043 0.0626408
0.486796 -0.254166 0.0869776 100 -0.965193 -0.232921 0.118958 -0.486796 0.254166 -0.0869776
0.453858 -0.23707 -0.0447981 13 0.0449528 0.95998 0.276437 -0.453858 0.23707 0.0447981
0.474397 -0.247904 -0.0280521 18 -0.558629 0.814748 0.155306 -0.474397 0.247904 0.0280521
0.492189 -0.25731 0.128222 100 -0.965193 -0.232921 0.118958 -0.492189 0.25731 -0.128222
0.499817 -0.26152 0.15115 100 0.229066 -0.119169 -0.966089 -0.499817 0.26152 -0.15115
0.489746 -0.257341 0.0289941 100 -0.864133 0.193154 -0.464721 -0.489746 0.257341 -0.0289941
0.469018 -0.246867 -0.0650782 50 0.0620348 0.980881 -0.184458 -0.469018 0.246867 0.0650782
0.487654 -0.256784 0.0872904 100 -0.965193 -0.232921 0.118958 -0.487654 0.256784 -0.0872904
0.481143 -0.253463 0.105708 100 -0.0138507 0.999866 0.00877348 -0.481143 0.253463 -0.105708
0.461161 -0.24304 -0.0273194 20 -0.145541 0.98618 0.0791633 -0.461161 0.24304 0.0273194
0.494736 -0.260845 0.129122 100 0.200426 -0.101981 -0.974387 -0.494736 0.260845 -0.129122
0.475788 -0.250961 -0.00938939 22 0.0153784 -0.00823306 0.999848 -0.475788 0.250961 0.00938939
0.507444 -0.267771 0.153739 100 0.229066 -0.119169 -0.966089 -0.507444 0.267771 -0.153739
0.480021 -0.254373 0.0284708 24 -0.80434 0.581737 0.120908 -0.480021 0.254373 -0.0284708
0.475211 -0.252142 0.0660532 14 0.106966 -0.0575047 -0.992598 -0.475211 0.252142 -0.0660532
0.447113 -0.237334 -0.0621534 52 -0.375613 0.91683 0.135417 -0.447113 0.237334 0.0621534
0.466311 -0.247629 -0.0461925 13 0.0620348 0.980881 -0.184458 -0.466311 0.247629 0.0461925
0.471586 -0.250536 0.1038 100 -0.450134 0.891666 0.0480766 -0.471586 0.250536 -0.1038
0.483737 -0.257316 -0.00956392 22 0.0153784 -0.00823306 0.999848 -0.483737 0.257316 0.00956392
0.497979 -0.265003 0.15115 100 0.228209 -0.121959 -0.965943 -0.497979 0.265003 -0.15115
0.470827 -0.251927 0.0655657 13 0.106966 -0.0575047 -0.992598 -0.470827 0.251927 -0.0655657
0.477631 -0.255889 0.105327 100 -0.0138507 0.999866 0.00877348 -0.477631 0.255889 -0.105327
0.466494 -0.250027 -0.0277381 20 -0.558629 0.814748 0.155306 -0.466494 0.250027 0.0277381
0.4705 -0.252386 -0.00931959 22 0.0153784 -0.00823306 0.999848 -0.4705 0.252386 0.00931959
0.502158 -0.26948 0.152703 100 0.229066 -0.119169 -0.966089 -0.502158 0.26948 -0.152703
0.474717 -0.255823 0.0282614 24 -0.841778 0.535582 0.0675503 -0.474717 0.255823 -0.0282614
0.473515 -0.255281 0.0470641 100 -0.0654658 0.951777 -0.299723 -0.473515 0.255281 -0.0470641
0.475186 -0.256396 0.0662969 13 0.106966 -0.0575047 -0.992598 -0.475186 0.256396 -0.0662969
0.445445 -0.240449 -0.0621534 52 -0.375613 0.91683 0.135417 -0.445445 0.240449 0.0621534
0.49102 -0.265715 0.149597 100 0.228209 -0.121959 -0.965943 -0.49102 0.265715 -0.149597
0.473821 -0.257478 0.0282614 100 -0.841778 0.535582 0.0675503 -0.473821 0.257478 -0.0282614
0.46912 -0.25503 0.0467155 100 -0.0654658 0.951777 -0.299723 -0.46912 0.25503 -0.0467155
0.444603 -0.242003 -0.0621534 52 -0.375613 0.91683 0.135417 -0.444603 0.242003 0.0621534
0.479069 -0.261197 0.125973 100 -0.784178 -0.616602 0.0697576 -0.479069 0.261197 -0.125973
0.465216 -0.253749 -0.00924978 22 0.0153784 -0.00823306 0.999848 -0.465216 0.253749 0.00924978
0.471435 -0.257248 0.143903 100 -0.298642 -0.529015 -0.794327 -0.471435 0.257248 -0.143903
0.456047 -0.249678 0.00907525 18 -0.145541 0.98618 0.0791633 -0.456047 0.249678 -0.00907525
0.479926 -0.262969 0.0286801 100 -0.80434 0.581737 0.120908 -0.479926 0.262969 -0.0286801
0.468163 -0.256843 0.0655657 14 -0.106409 0.0609117 0.992455 -0.468163 0.256843 -0.0655657
0.441851 -0.242608 -0.0441008 13 -0.375613 0.91683 0.135417 -0.441851 0.242608 0.0441008
0.46288 -0.25426 0.102655 100 -0.226054 0.953999 -0.19694 -0.46288 0.25426 -0.102655
0.46035 -0.252975 -0.0275287 19 -0.200112 0.901925 0.382735 -0.46035 0.252975 0.0275287
0.468516 -0.258848 0.0280521 24 -0.841778 0.535582 0.0675503 -0.468516 0.258848 -0.0280521
0.473528 -0.262157 0.0857261 100 -0.784178 -0.616602 0.0697576 -0.473528 0.262157 -0.0857261
0.447974 -0.248009 -0.0447981 13 -0.145541 0.98618 0.0791633 -0.447974 0.248009 0.0447981
0.453402 -0.251118 0.100747 100 -0.935351 0.341788 0.0911013 -0.453402 0.251118 -0.100747
0.48821 -0.270842 0.149597 100 0.228209 -0.121959 -0.965943 -0.48821 0.270842 -0.149597
0.464776 -0.258691 0.00928468 18 0.0185654 0.998133 0.0581957 -0.464776 0.258691 -0.00928468
0.476866 -0.265747 0.0477613 100 -0.864133 0.193154 -0.464721 -0.476866 0.265747 -0.0477613
0.45769 -0.255271 0.064347 13 0.106966 -0.0575047 -0.992598 -0.45769 0.255271 -0.064347
0.465711 -0.259957 0.0844746 100 -0.226054 0.953999 -0.19694 -0.465711 0.259957 -0.0844746
0.457297 -0.255679 -0.00914506 22 -0.0152262 0.00864948 -0.999847 -0.457297 0.255679 0.00914506
0.490634 -0.274431 0.150633 100 0.228209 -0.121959 -0.965943 -0.490634 0.274431 -0.150633
0.469102 -0.263248 0.00938939 15 -0.841778 0.535582 0.0675503 -0.469102 0.263248 -0.00938939
0.458035 -0.257142 0.0275287 100 0.0185654 0.998133 0.0581957 -0.458035 0.257142 -0.0275287
0.463777 -0.260579 0.0465412 19 -0.0760692 0.044893 0.996091 -0.463777 0.260579 -0.0465412
0.435814 -0.245268 -0.0437522 13 -0.764155 0.643402 -0.0458278 -0.435814 0.245268 0.0437522
0.457746 -0.258032 0.140798 100 -0.298642 -0.529015 -0.794327 -0.457746 0.258032 -0.140798
0.452561 -0.255942 0.00907525 18 0.0185654 0.998133 0.0581957 -0.452561 0.255942 -0.00907525
0.462349 -0.261691 0.0278427 24 0.11596 0.991468 0.05954 -0.462349 0.261691 -0.0278427
0.433448 -0.245732 -0.0611784 53 -0.764155 0.643402 -0.0458278 -0.433448 0.245732 0.0611784
0.461038 -0.261587 0.103037 100 -0.1522 0.971003 -0.184361 -0.461038 0.261587 -0.103037
0.456818 -0.259298 -0.0275287 19 -0.200112 0.901925 0.382735 -0.456818 0.259298 0.0275287
0.460928 -0.261737 0.122373 100 0.194559 -0.112768 -0.974387 -0.460928 0.261737 -0.122373
0.453807 -0.257798 -0.00911016 22 -0.0152262 0.00864948 -0.999847 -0.453807 0.257798 0.00911016
0.473638 -0.269173 0.145974 100 -0.298642 -0.529015 -0.794327 -0.473638 0.269173 -0.145974
0.464948 -0.265202 0.0280521 24 0.11596 0.991468 0.05954 -0.464948 0.265202 -0.0280521
0.436034 -0.249214 -0.0616659 53 -0.764155 0.643402 -0.0458278 -0.436034 0.249214 0.0616659
0.462685 -0.264982 0.142868 100 -0.298642 -0.529015 -0.794327 -0.462685 0.264982 -0.142868
0.450169 -0.258858 0.0272147 24 0.11596 0.991468 0.05954 -0.450169 0.258858 -0.0272147
0.459342 -0.264347 0.0463669 19 -0.0760692 0.044893 0.996091 -0.459342 0.264347 -0.0463669
0.439471 -0.253422 -0.0265867 16 -0.827312 0.353136 0.436865 -0.439471 0.253422 0.0265867
0.454072 -0.261947 0.121024 100 -0.1522 0.971003 -0.184361 -0.454072 0.261947 -0.121024
0.44644 -0.258584 0.00900544 18 -0.368663 0.922635 0.113281 -0.44644 0.258584 -0.00900544
0.44639 -0.259075 0.0633721 14 0.105054 -0.0612376 -0.992579 -0.44639 0.259075 -0.0633721
0.445823 -0.258955 0.0816588 100 -0.635494 0.761933 -0.124923 -0.445823 0.258955 -0.0816588
0.45832 -0.26632 0.103037 100 -0.1522 0.971003 -0.184361 -0.45832 0.26632 -0.103037
0.443764 -0.257966 -0.0269007 19 -0.201373 0.950757 0.235605 -0.443764 0.257966 0.0269007
0.460824 -0.268206 0.142868 100 -0.298642 -0.529015 -0.794327 -0.460824 0.268206 -0.142868
0.448989 -0.262158 0.00907525 20 0.11596 0.991468 0.05954 -0.448989 0.262158 -0.00907525
0.446626 -0.260987 0.02711 100 -0.368663 0.922635 0.113281 -0.446626 0.260987 -0.02711
0.452336 -0.264642 0.064347 14 -0.106409 0.0609117 0.992455 -0.452336 0.264642 -0.064347
0.453953 -0.266013 0.102274 100 -0.468338 0.724899 -0.505155 -0.453953 0.266013 -0.102274
0.447984 -0.262621 -0.0272147 18 -0.414205 0.164926 0.895116 -0.447984 0.262621 0.0272147
0.455548 -0.267161 0.121923 100 0.194559 -0.112768 -0.974387 -0.455548 0.267161 -0.121923
0.44331 -0.259984 -0.00897054 24 -0.827312 0.353136 0.436865 -0.44331 0.259984 0.00897054
0.459885 -0.269813 0.142868 100 -0.222724 0.132634 0.965817 -0.459885 0.269813 -0.142868
0.435963 -0.256699 0.00883092 15 -0.490765 0.864544 -0.108223 -0.435963 0.256699 -0.00883092
0.44795 -0.264601 0.101129 100 -0.935351 0.341788 0.0911013 -0.44795 0.264601 -0.101129
0.463 -0.273708 0.124173 100 0.194559 -0.112768 -0.974387 -0.463 0.273708 -0.124173
0.441988 -0.262225 0.00897054 16 0.186978 0.97114 -0.148079 -0.441988 0.262225 -0.00897054
0.44651 -0.265119 0.0272147 100 -0.225285 0.971912 0.0680764 -0.44651 0.265119 -0.0272147
0.436827 -0.259678 0.0623971 13 0.105054 -0.0612376 -0.992579 -0.436827 0.259678 -0.0623971
0.428251 -0.254681 -0.0611784 71 -0.981161 0.168528 0.0944509 -0.428251 0.254681 0.0611784
0.457067 -0.27225 0.122823 100 0.194559 -0.112768 -0.974387 -0.457067 0.27225 -0.122823
0.44492 -0.26512 -0.00904035 26 -0.827312 0.353136 0.436865 -0.44492 0.26512 0.00904035
0.464627 -0.276973 0.144939 100 -0.222724 0.132634 0.965817 -0.464627 0.276973 -0.144939
0.434205 -0.259661 0.00883092 15 -0.490765 0.864544 -0.108223 -0.434205 0.259661 -0.00883092
0.445582 -0.266676 0.0272147 100 -0.225285 0.971912 0.0680764 -0.445582 0.266676 -0.0272147
0.447868 -0.26815 0.0456696 19 -0.0760692 0.044893 0.996091 -0.447868 0.26815 -0.0456696
0.447246 -0.268202 0.0825974 100 -0.248199 0.964013 -0.0952704 -0.447246 0.268202 -0.0825974
0.427132 -0.256241 -0.0435779 17 -0.981161 0.168528 0.0944509 -0.427132 0.256241 0.0435779
0.437721 -0.262594 0.0992207 100 -0.635494 0.761933 -0.124923 -0.437721 0.262594 -0.0992207
0.431584 -0.260143 0.00879601 18 0.186978 0.97114 -0.148079 -0.431584 0.260143 -0.00879601
0.429257 -0.258944 0.0262727 100 -0.994588 -0.0148392 -0.102831 -0.429257 0.258944 -0.0262727
0.446882 -0.26979 0.0456696 19 -0.747865 0.484807 -0.453497 -0.446882 0.26979 -0.0456696
0.438402 -0.264774 0.0628846 14 -0.747865 0.484807 -0.453497 -0.438402 0.264774 -0.0628846
0.439545 -0.265674 0.0813459 100 -0.0677638 0.996277 0.0532908 -0.439545 0.265674 -0.0813459
0.426235 -0.25773 -0.0435779 17 -0.981161 0.168528 0.0944509 -0.426235 0.25773 0.0435779
0.436756 -0.264196 0.0992207 100 -0.635494 0.761933 -0.124923 -0.436756 0.264196 -0.0992207
